  357702.0, 4264763.0,     -13.1
  357701.0, 4264762.0,     -13.1
  357701.0, 4264763.0,     -13.1
  357750.0, 4264748.0,     -13.1
  357784.0, 4264828.0,     -13.1
  357785.0, 4264828.0,     -13.1
  357739.0, 4264758.0,     -13.1
  357741.0, 4264760.0,     -13.1
  357749.0, 4264750.0,     -13.1
  357740.0, 4264759.0,     -13.1
  357749.0, 4264751.0,     -13.1
  357737.0, 4264759.0,     -13.1
  357700.0, 4264763.0,     -13.1
  357737.0, 4264760.0,     -13.1
  357700.0, 4264764.0,     -13.1
  357700.0, 4264765.0,     -13.1
  357786.0, 4264830.0,     -13.1
  357735.0, 4264759.0,     -13.1
  357683.0, 4264784.0,     -13.1
  357699.0, 4264769.0,     -13.1
  357699.0, 4264770.0,     -13.1
  357699.0, 4264771.0,     -13.1
  357699.0, 4264772.0,     -13.1
  357780.0, 4264835.0,     -13.1
  357778.0, 4264810.0,     -13.1
  357735.0, 4264761.0,     -13.1
  357696.0, 4264778.0,     -13.1
  357695.0, 4264778.0,     -13.1
  357784.0, 4264826.0,     -13.1
  357745.0, 4264767.0,     -13.2
  357782.0, 4264825.0,     -13.1
  357757.0, 4264727.0,     -13.1
  357747.0, 4264764.0,     -13.1
  357746.0, 4264764.0,     -13.1
  357757.0, 4264728.0,     -13.1
  357757.0, 4264729.0,     -13.1
  357755.0, 4264726.0,     -13.1
  357743.0, 4264768.0,     -13.1
  357778.0, 4264796.0,     -13.1
  357755.0, 4264732.0,     -13.1
  357777.0, 4264791.0,     -13.1
  357776.0, 4264821.0,     -13.1
  357768.0, 4264779.0,     -13.1
  357767.0, 4264779.0,     -13.1
  357768.0, 4264780.0,     -13.1
  357768.0, 4264781.0,     -13.1
  357768.0, 4264782.0,     -13.1
  357772.0, 4264844.0,     -13.1
  357771.0, 4264844.0,     -13.1
  357740.0, 4264775.0,     -13.1
  357741.0, 4264776.0,     -13.1
  357741.0, 4264777.0,     -13.1
  357740.0, 4264777.0,     -13.1
  357740.0, 4264778.0,     -13.1
  357740.0, 4264779.0,     -13.1
  357747.0, 4264765.0,     -13.2
  357747.0, 4264766.0,     -13.3
  357746.0, 4264766.0,     -13.3
  357744.0, 4264768.0,     -13.4
  357735.0, 4264760.0,     -13.0
  357742.0, 4264760.0,     -13.0
  357737.0, 4264777.0,     -13.0
  357743.0, 4264762.0,     -13.0
  357736.0, 4264761.0,     -13.0
  357687.0, 4264778.0,     -13.0
  357742.0, 4264761.0,     -13.0
  357736.0, 4264762.0,     -13.0
  357698.0, 4264773.0,     -13.0
  357746.0, 4264763.0,     -13.0
  357697.0, 4264776.0,     -13.0
  357779.0, 4264817.0,     -13.0
  357751.0, 4264731.0,     -13.0
  357781.0, 4264795.0,     -13.0
  357695.0, 4264779.0,     -13.0
  357783.0, 4264817.0,     -13.0
  357723.0, 4264770.0,     -13.0
  357783.0, 4264818.0,     -13.0
  357782.0, 4264817.0,     -13.0
  357782.0, 4264818.0,     -13.0
  357781.0, 4264818.0,     -13.0
  357693.0, 4264779.0,     -13.0
  357783.0, 4264819.0,     -13.0
  357782.0, 4264819.0,     -13.0
  357785.0, 4264827.0,     -13.0
  357783.0, 4264826.0,     -13.0
  357786.0, 4264831.0,     -13.0
  357681.0, 4264785.0,     -13.0
  357740.0, 4264758.0,     -13.0
  357681.0, 4264787.0,     -13.0
  357681.0, 4264788.0,     -13.0
  357744.0, 4264756.0,     -13.0
  357736.0, 4264759.0,     -13.0
  357703.0, 4264760.0,     -13.0
  357703.0, 4264761.0,     -13.0
  357699.0, 4264760.0,     -13.0
  357699.0, 4264761.0,     -13.0
  357699.0, 4264767.0,     -13.0
  357751.0, 4264723.0,     -12.8
  357746.0, 4264762.0,     -12.8
  357745.0, 4264762.0,     -12.8
  357739.0, 4264778.0,     -12.8
  357739.0, 4264777.0,     -12.8
  357744.0, 4264762.0,     -12.8
  357743.0, 4264761.0,     -12.8
  357738.0, 4264778.0,     -12.8
  357778.0, 4264817.0,     -12.8
  357684.0, 4264782.0,     -12.8
  357738.0, 4264779.0,     -12.8
  357745.0, 4264763.0,     -12.8
  357749.0, 4264738.0,     -12.8
  357786.0, 4264819.0,     -12.8
  357785.0, 4264817.0,     -12.8
  357785.0, 4264818.0,     -12.8
  357784.0, 4264818.0,     -12.8
  357777.0, 4264839.0,     -12.8
  357776.0, 4264840.0,     -12.8
  357699.0, 4264773.0,     -12.8
  357770.0, 4264779.0,     -12.8
  357697.0, 4264774.0,     -12.8
  357770.0, 4264778.0,     -12.8
  357769.0, 4264778.0,     -12.8
  357769.0, 4264779.0,     -12.8
  357768.0, 4264778.0,     -12.8
  357740.0, 4264757.0,     -12.8
  357770.0, 4264780.0,     -12.8
  357769.0, 4264780.0,     -12.8
  357769.0, 4264781.0,     -12.8
  357741.0, 4264758.0,     -12.8
  357741.0, 4264759.0,     -12.8
  357780.0, 4264818.0,     -12.8
  357697.0, 4264778.0,     -12.8
  357696.0, 4264777.0,     -12.8
  357750.0, 4264749.0,     -12.8
  357696.0, 4264779.0,     -12.8
  357785.0, 4264826.0,     -12.8
  357736.0, 4264760.0,     -12.8
  357712.0, 4264757.0,     -12.8
  357692.0, 4264780.0,     -12.8
  357747.0, 4264762.0,     -12.8
  357693.0, 4264781.0,     -12.8
  357709.0, 4264757.0,     -12.8
  357785.0, 4264832.0,     -12.8
  357689.0, 4264779.0,     -12.8
  357691.0, 4264780.0,     -12.8
  357706.0, 4264756.0,     -12.8
  357743.0, 4264757.0,     -12.8
  357742.0, 4264757.0,     -12.8
  357688.0, 4264779.0,     -12.8
  357682.0, 4264790.0,     -12.8
  357683.0, 4264792.0,     -12.8
  357704.0, 4264760.0,     -12.8
  357704.0, 4264761.0,     -12.8
  357684.0, 4264793.0,     -12.8
  357704.0, 4264762.0,     -12.8
  357720.0, 4264772.0,     -12.8
  357731.0, 4264760.0,     -12.8
  357703.0, 4264762.0,     -12.8
  357703.0, 4264763.0,     -12.8
  357702.0, 4264761.0,     -12.8
  357700.0, 4264759.0,     -12.8
  357700.0, 4264760.0,     -12.8
  357699.0, 4264759.0,     -12.8
  357700.0, 4264762.0,     -12.8
  357739.0, 4264775.0,     -12.8
  357698.0, 4264759.0,     -12.8
  357739.0, 4264776.0,     -12.8
  357740.0, 4264776.0,     -12.8
  357738.0, 4264776.0,     -12.8
  357699.0, 4264768.0,     -12.8
  357700.0, 4264769.0,     -12.8
  357700.0, 4264770.0,     -12.8
  357739.0, 4264779.0,     -12.8
  357738.0, 4264777.0,     -12.9
  357747.0, 4264763.0,     -12.9
  357748.0, 4264720.0,     -12.8
  357748.0, 4264762.0,     -12.8
  357783.0, 4264825.0,     -12.8
  357754.0, 4264726.0,     -12.8
  357778.0, 4264792.0,     -12.8
  357778.0, 4264797.0,     -12.8
  357768.0, 4264783.0,     -12.8
  357777.0, 4264817.0,     -12.8
  357767.0, 4264778.0,     -12.8
  357778.0, 4264798.0,     -12.8
  357748.0, 4264763.0,     -12.9
  357747.0, 4264720.0,     -12.8
  357747.0, 4264719.0,     -12.8
  357746.0, 4264719.0,     -12.8
  357754.0, 4264734.0,     -12.8
  357765.0, 4264777.0,     -12.8
  357765.0, 4264776.0,     -12.8
  357766.0, 4264778.0,     -12.8
  357766.0, 4264777.0,     -12.8
  357773.0, 4264787.0,     -12.8
  357771.0, 4264786.0,     -12.8
  357777.0, 4264799.0,     -12.8
  357768.0, 4264784.0,     -12.8
  357769.0, 4264785.0,     -12.8
  357769.0, 4264784.0,     -12.8
  357770.0, 4264785.0,     -12.8
  357779.0, 4264806.0,     -12.8
  357779.0, 4264805.0,     -12.8
  357779.0, 4264807.0,     -12.8
  357770.0, 4264844.0,     -12.8
  357750.0, 4264763.0,     -12.8
  357749.0, 4264762.0,     -12.8
  357781.0, 4264802.0,     -12.8
  357780.0, 4264801.0,     -12.8
  357781.0, 4264803.0,     -12.8
  357780.0, 4264804.0,     -12.8
  357781.0, 4264824.0,     -12.8
  357776.0, 4264789.0,     -12.8
  357780.0, 4264802.0,     -12.9
  357749.0, 4264763.0,     -12.9
  357780.0, 4264803.0,     -13.0
  357750.0, 4264764.0,     -13.1
  357749.0, 4264764.0,     -13.1
  357777.0, 4264797.0,     -13.1
  357748.0, 4264764.0,     -13.2
  357750.0, 4264765.0,     -13.2
  357749.0, 4264765.0,     -13.3
  357748.0, 4264765.0,     -13.3
  357777.0, 4264798.0,     -13.0
  357778.0, 4264805.0,     -13.0
  357741.0, 4264778.0,     -13.4
  357778.0, 4264806.0,     -13.0
  357769.0, 4264782.0,     -12.7
  357749.0, 4264720.0,     -12.7
  357779.0, 4264811.0,     -12.7
  357779.0, 4264812.0,     -12.7
  357717.0, 4264775.0,     -12.7
  357779.0, 4264813.0,     -12.7
  357746.0, 4264761.0,     -12.7
  357745.0, 4264761.0,     -12.7
  357750.0, 4264741.0,     -12.7
  357749.0, 4264741.0,     -12.7
  357778.0, 4264818.0,     -12.7
  357744.0, 4264761.0,     -12.7
  357777.0, 4264818.0,     -12.7
  357744.0, 4264760.0,     -12.7
  357775.0, 4264817.0,     -12.7
  357743.0, 4264760.0,     -12.7
  357743.0, 4264759.0,     -12.7
  357742.0, 4264759.0,     -12.7
  357777.0, 4264819.0,     -12.7
  357777.0, 4264820.0,     -12.7
  357703.0, 4264755.0,     -12.7
  357703.0, 4264759.0,     -12.7
  357787.0, 4264819.0,     -12.7
  357770.0, 4264781.0,     -12.7
  357784.0, 4264817.0,     -12.7
  357739.0, 4264763.0,     -12.7
  357701.0, 4264761.0,     -12.7
  357739.0, 4264764.0,     -12.7
  357782.0, 4264816.0,     -12.7
  357700.0, 4264761.0,     -12.7
  357684.0, 4264783.0,     -12.7
  357781.0, 4264819.0,     -12.7
  357681.0, 4264786.0,     -12.7
  357773.0, 4264844.0,     -12.7
  357741.0, 4264757.0,     -12.7
  357701.0, 4264764.0,     -12.7
  357681.0, 4264789.0,     -12.7
  357786.0, 4264820.0,     -12.7
  357786.0, 4264829.0,     -12.7
  357698.0, 4264775.0,     -12.7
  357697.0, 4264775.0,     -12.7
  357697.0, 4264777.0,     -12.7
  357694.0, 4264780.0,     -12.7
  357693.0, 4264780.0,     -12.7
  357694.0, 4264781.0,     -12.7
  357688.0, 4264780.0,     -12.7
  357688.0, 4264781.0,     -12.7
  357687.0, 4264781.0,     -12.7
  357686.0, 4264781.0,     -12.7
  357711.0, 4264758.0,     -12.7
  357710.0, 4264758.0,     -12.7
  357708.0, 4264757.0,     -12.7
  357705.0, 4264760.0,     -12.6
  357705.0, 4264759.0,     -12.6
  357704.0, 4264759.0,     -12.6
  357705.0, 4264761.0,     -12.6
  357779.0, 4264810.0,     -12.6
  357744.0, 4264759.0,     -12.6
  357746.0, 4264760.0,     -12.6
  357745.0, 4264760.0,     -12.6
  357698.0, 4264774.0,     -12.6
  357778.0, 4264819.0,     -12.6
  357750.0, 4264737.0,     -12.6
  357742.0, 4264758.0,     -12.6
  357750.0, 4264740.0,     -12.6
  357749.0, 4264740.0,     -12.6
  357778.0, 4264820.0,     -12.6
  357714.0, 4264777.0,     -12.6
  357784.0, 4264816.0,     -12.6
  357784.0, 4264819.0,     -12.6
  357770.0, 4264777.0,     -12.6
  357771.0, 4264779.0,     -12.6
  357771.0, 4264781.0,     -12.6
  357740.0, 4264763.0,     -12.6
  357771.0, 4264780.0,     -12.6
  357701.0, 4264759.0,     -12.6
  357701.0, 4264760.0,     -12.6
  357690.0, 4264780.0,     -12.6
  357689.0, 4264780.0,     -12.6
  357787.0, 4264826.0,     -12.6
  357786.0, 4264826.0,     -12.6
  357787.0, 4264827.0,     -12.6
  357786.0, 4264827.0,     -12.6
  357786.0, 4264828.0,     -12.6
  357744.0, 4264757.0,     -12.6
  357782.0, 4264834.0,     -12.6
  357705.0, 4264755.0,     -12.6
  357685.0, 4264793.0,     -12.6
  357684.0, 4264792.0,     -12.6
  357683.0, 4264791.0,     -12.6
  357785.0, 4264814.0,     -12.6
  357785.0, 4264815.0,     -12.6
  357784.0, 4264814.0,     -12.6
  357784.0, 4264815.0,     -12.6
  357748.0, 4264761.0,     -12.6
  357758.0, 4264727.0,     -12.6
  357758.0, 4264728.0,     -12.6
  357758.0, 4264729.0,     -12.6
  357782.0, 4264800.0,     -12.6
  357781.0, 4264800.0,     -12.6
  357756.0, 4264731.0,     -12.6
  357755.0, 4264733.0,     -12.6
  357782.0, 4264802.0,     -12.6
  357784.0, 4264825.0,     -12.6
  357777.0, 4264790.0,     -12.6
  357770.0, 4264784.0,     -12.6
  357779.0, 4264797.0,     -12.6
  357769.0, 4264783.0,     -12.6
  357779.0, 4264808.0,     -12.6
  357705.0, 4264757.0,     -12.4
  357705.0, 4264758.0,     -12.4
  357787.0, 4264831.0,     -12.4
  357704.0, 4264756.0,     -12.4
  357787.0, 4264830.0,     -12.4
  357705.0, 4264756.0,     -12.4
  357730.0, 4264760.0,     -12.4
  357770.0, 4264782.0,     -12.4
  357698.0, 4264776.0,     -12.4
  357779.0, 4264809.0,     -12.4
  357687.0, 4264782.0,     -12.4
  357686.0, 4264782.0,     -12.4
  357772.0, 4264778.0,     -12.4
  357772.0, 4264779.0,     -12.4
  357771.0, 4264777.0,     -12.4
  357776.0, 4264818.0,     -12.4
  357776.0, 4264819.0,     -12.4
  357684.0, 4264784.0,     -12.4
  357725.0, 4264761.0,     -12.4
  357682.0, 4264785.0,     -12.4
  357740.0, 4264764.0,     -12.4
  357682.0, 4264787.0,     -12.4
  357750.0, 4264750.0,     -12.4
  357682.0, 4264788.0,     -12.4
  357747.0, 4264761.0,     -12.4
  357684.0, 4264791.0,     -12.4
  357745.0, 4264756.0,     -12.4
  357775.0, 4264842.0,     -12.4
  357707.0, 4264757.0,     -12.4
  357706.0, 4264757.0,     -12.4
  357743.0, 4264758.0,     -12.4
  357744.0, 4264758.0,     -12.4
  357788.0, 4264816.0,     -12.4
  357783.0, 4264815.0,     -12.4
  357783.0, 4264816.0,     -12.4
  357704.0, 4264758.0,     -12.4
  357705.0, 4264762.0,     -12.4
  357702.0, 4264755.0,     -12.4
  357703.0, 4264758.0,     -12.4
  357702.0, 4264760.0,     -12.4
  357700.0, 4264758.0,     -12.4
  357706.0, 4264758.0,     -12.3
  357704.0, 4264757.0,     -12.3
  357700.0, 4264766.0,     -12.3
  357745.0, 4264759.0,     -12.3
  357746.0, 4264759.0,     -12.3
  357706.0, 4264759.0,     -12.3
  357706.0, 4264760.0,     -12.3
  357787.0, 4264816.0,     -12.3
  357788.0, 4264817.0,     -12.3
  357728.0, 4264759.0,     -12.3
  357787.0, 4264817.0,     -12.3
  357698.0, 4264777.0,     -12.3
  357785.0, 4264816.0,     -12.3
  357697.0, 4264779.0,     -12.3
  357718.0, 4264774.0,     -12.3
  357726.0, 4264767.0,     -12.3
  357772.0, 4264777.0,     -12.3
  357685.0, 4264792.0,     -12.3
  357771.0, 4264778.0,     -12.3
  357685.0, 4264782.0,     -12.3
  357692.0, 4264781.0,     -12.3
  357689.0, 4264781.0,     -12.3
  357682.0, 4264786.0,     -12.3
  357702.0, 4264756.0,     -12.3
  357703.0, 4264757.0,     -12.3
  357703.0, 4264756.0,     -12.3
  357683.0, 4264790.0,     -12.3
  357702.0, 4264758.0,     -12.3
  357702.0, 4264759.0,     -12.3
  357682.0, 4264789.0,     -12.3
  357701.0, 4264758.0,     -12.3
  357749.0, 4264752.0,     -12.3
  357771.0, 4264784.0,     -12.3
  357770.0, 4264783.0,     -12.3
  357778.0, 4264791.0,     -12.3
  357779.0, 4264796.0,     -12.3
  357776.0, 4264820.0,     -12.3
  357778.0, 4264838.0,     -12.3
  357785.0, 4264819.0,     -12.3
  357782.0, 4264815.0,     -12.3
  357789.0, 4264826.0,     -12.3
  357789.0, 4264827.0,     -12.3
  357788.0, 4264826.0,     -12.3
  357788.0, 4264825.0,     -12.3
  357787.0, 4264825.0,     -12.3
  357788.0, 4264827.0,     -12.3
  357769.0, 4264777.0,     -12.3
  357786.0, 4264825.0,     -12.3
  357748.0, 4264719.0,     -12.3
  357757.0, 4264730.0,     -12.3
  357783.0, 4264802.0,     -12.3
  357783.0, 4264801.0,     -12.3
  357783.0, 4264803.0,     -12.3
  357782.0, 4264801.0,     -12.3
  357748.0, 4264759.0,     -12.3
  357747.0, 4264759.0,     -12.3
  357778.0, 4264789.0,     -12.3
  357777.0, 4264789.0,     -12.3
  357782.0, 4264799.0,     -12.3
  357781.0, 4264799.0,     -12.3
  357779.0, 4264798.0,     -12.3
  357767.0, 4264777.0,     -12.3
  357747.0, 4264760.0,     -12.4
  357748.0, 4264760.0,     -12.5
  357753.0, 4264763.0,     -12.3
  357752.0, 4264762.0,     -12.3
  357783.0, 4264804.0,     -12.3
  357772.0, 4264786.0,     -12.3
  357751.0, 4264761.0,     -12.3
  357746.0, 4264718.0,     -12.3
  357782.0, 4264805.0,     -12.3
  357751.0, 4264762.0,     -12.3
  357779.0, 4264799.0,     -12.3
  357780.0, 4264806.0,     -12.3
  357750.0, 4264760.0,     -12.3
  357780.0, 4264807.0,     -12.3
  357755.0, 4264734.0,     -12.3
  357749.0, 4264760.0,     -12.3
  357754.0, 4264735.0,     -12.3
  357750.0, 4264761.0,     -12.3
  357779.0, 4264823.0,     -12.3
  357753.0, 4264735.0,     -12.3
  357765.0, 4264774.0,     -12.3
  357780.0, 4264800.0,     -12.3
  357782.0, 4264824.0,     -12.3
  357766.0, 4264776.0,     -12.3
  357765.0, 4264775.0,     -12.3
  357775.0, 4264788.0,     -12.3
  357771.0, 4264785.0,     -12.3
  357752.0, 4264763.0,     -12.4
  357751.0, 4264763.0,     -12.6
  357778.0, 4264799.0,     -12.3
  357781.0, 4264801.0,     -12.6
  357782.0, 4264803.0,     -12.6
  357782.0, 4264804.0,     -12.5
  357781.0, 4264804.0,     -12.6
  357781.0, 4264805.0,     -12.5
  357780.0, 4264805.0,     -12.5
  357749.0, 4264761.0,     -12.5
  357750.0, 4264762.0,     -12.7
  357779.0, 4264800.0,     -12.4
  357768.0, 4264844.0,     -12.3
  357744.0, 4264718.0,     -12.3
  357767.0, 4264844.0,     -12.3
  357745.0, 4264718.0,     -12.3
  357766.0, 4264844.0,     -12.3
  357765.0, 4264843.0,     -12.3
  357763.0, 4264771.0,     -12.3
  357764.0, 4264772.0,     -12.3
  357761.0, 4264770.0,     -12.3
  357760.0, 4264769.0,     -12.3
  357764.0, 4264773.0,     -12.3
  357758.0, 4264767.0,     -12.3
  357756.0, 4264765.0,     -12.3
  357755.0, 4264765.0,     -12.3
  357754.0, 4264764.0,     -12.3
  357779.0, 4264802.0,     -13.1
  357778.0, 4264800.0,     -13.0
  357763.0, 4264772.0,     -12.6
  357779.0, 4264803.0,     -13.2
  357745.0, 4264719.0,     -12.9
  357777.0, 4264800.0,     -13.4
  357760.0, 4264770.0,     -12.5
  357779.0, 4264804.0,     -13.0
  357744.0, 4264719.0,     -13.1
  357743.0, 4264718.0,     -12.6
  357764.0, 4264774.0,     -12.8
  357778.0, 4264802.0,     -13.3
  357741.0, 4264718.0,     -12.8
  357763.0, 4264773.0,     -12.8
  357778.0, 4264803.0,     -13.4
  357763.0, 4264774.0,     -13.1
  357778.0, 4264804.0,     -13.3
  357764.0, 4264776.0,     -13.0
  357754.0, 4264765.0,     -12.6
  357753.0, 4264764.0,     -12.5
  357753.0, 4264765.0,     -12.8
  357752.0, 4264764.0,     -12.7
  357752.0, 4264765.0,     -13.0
  357751.0, 4264764.0,     -12.9
  357751.0, 4264765.0,     -13.1
  357753.0, 4264766.0,     -13.0
  357752.0, 4264766.0,     -13.2
  357753.0, 4264767.0,     -13.2
  357752.0, 4264767.0,     -13.3
  357751.0, 4264766.0,     -13.3
  357750.0, 4264766.0,     -13.4
  357766.0, 4264843.0,     -13.0
  357764.0, 4264775.0,     -12.6
  357749.0, 4264766.0,     -13.3
  357707.0, 4264760.0,     -12.1
  357727.0, 4264766.0,     -12.1
  357745.0, 4264758.0,     -12.1
  357706.0, 4264761.0,     -12.1
  357746.0, 4264758.0,     -12.1
  357786.0, 4264832.0,     -12.1
  357784.0, 4264833.0,     -12.1
  357686.0, 4264792.0,     -12.1
  357685.0, 4264791.0,     -12.1
  357778.0, 4264790.0,     -12.1
  357771.0, 4264782.0,     -12.1
  357748.0, 4264744.0,     -12.1
  357771.0, 4264783.0,     -12.1
  357772.0, 4264775.0,     -12.1
  357771.0, 4264775.0,     -12.1
  357772.0, 4264776.0,     -12.1
  357771.0, 4264776.0,     -12.1
  357683.0, 4264786.0,     -12.1
  357683.0, 4264787.0,     -12.1
  357781.0, 4264815.0,     -12.1
  357683.0, 4264789.0,     -12.1
  357779.0, 4264818.0,     -12.1
  357779.0, 4264819.0,     -12.1
  357780.0, 4264819.0,     -12.1
  357699.0, 4264757.0,     -12.1
  357750.0, 4264751.0,     -12.1
  357699.0, 4264758.0,     -12.1
  357747.0, 4264758.0,     -12.1
  357699.0, 4264775.0,     -12.1
  357690.0, 4264781.0,     -12.1
  357688.0, 4264782.0,     -12.1
  357777.0, 4264821.0,     -12.0
  357746.0, 4264755.0,     -12.0
  357707.0, 4264759.0,     -12.0
  357789.0, 4264829.0,     -12.0
  357745.0, 4264757.0,     -12.0
  357700.0, 4264771.0,     -12.0
  357789.0, 4264825.0,     -12.0
  357778.0, 4264839.0,     -12.0
  357699.0, 4264774.0,     -12.0
  357787.0, 4264829.0,     -12.0
  357777.0, 4264840.0,     -12.0
  357787.0, 4264828.0,     -12.0
  357787.0, 4264814.0,     -12.0
  357787.0, 4264815.0,     -12.0
  357688.0, 4264790.0,     -12.0
  357687.0, 4264791.0,     -12.0
  357686.0, 4264791.0,     -12.0
  357683.0, 4264788.0,     -12.0
  357684.0, 4264790.0,     -12.0
  357684.0, 4264789.0,     -12.0
  357772.0, 4264782.0,     -12.0
  357702.0, 4264757.0,     -12.0
  357772.0, 4264783.0,     -12.0
  357691.0, 4264781.0,     -12.0
  357775.0, 4264816.0,     -12.0
  357751.0, 4264740.0,     -12.0
  357749.0, 4264739.0,     -12.0
  357773.0, 4264777.0,     -12.0
  357773.0, 4264778.0,     -12.0
  357707.0, 4264758.0,     -12.0
  357747.0, 4264757.0,     -12.0
  357746.0, 4264757.0,     -12.0
  357749.0, 4264719.0,     -12.0
  357786.0, 4264814.0,     -12.0
  357786.0, 4264813.0,     -12.0
  357785.0, 4264825.0,     -12.0
  357750.0, 4264759.0,     -12.0
  357749.0, 4264759.0,     -12.0
  357748.0, 4264758.0,     -12.0
  357792.0, 4264813.0,     -12.0
  357791.0, 4264813.0,     -12.0
  357778.0, 4264788.0,     -12.0
  357777.0, 4264788.0,     -12.0
  357772.0, 4264784.0,     -12.0
  357784.0, 4264803.0,     -12.0
  357780.0, 4264808.0,     -12.0
  357780.0, 4264809.0,     -12.0
  357785.0, 4264813.0,     -12.0
  357783.0, 4264814.0,     -12.0
  357759.0, 4264727.0,     -12.0
  357758.0, 4264726.0,     -12.0
  357699.0, 4264776.0,     -12.0
  357768.0, 4264777.0,     -12.0
  357786.0, 4264816.0,     -11.8
  357746.0, 4264756.0,     -11.8
  357708.0, 4264758.0,     -11.8
  357690.0, 4264782.0,     -11.8
  357691.0, 4264782.0,     -11.8
  357780.0, 4264790.0,     -11.8
  357781.0, 4264790.0,     -11.8
  357790.0, 4264826.0,     -11.8
  357790.0, 4264827.0,     -11.8
  357780.0, 4264791.0,     -11.8
  357789.0, 4264828.0,     -11.8
  357776.0, 4264817.0,     -11.8
  357790.0, 4264829.0,     -11.8
  357790.0, 4264830.0,     -11.8
  357789.0, 4264830.0,     -11.8
  357685.0, 4264790.0,     -11.8
  357788.0, 4264828.0,     -11.8
  357788.0, 4264829.0,     -11.8
  357684.0, 4264785.0,     -11.8
  357683.0, 4264785.0,     -11.8
  357788.0, 4264830.0,     -11.8
  357788.0, 4264831.0,     -11.8
  357782.0, 4264835.0,     -11.8
  357781.0, 4264835.0,     -11.8
  357719.0, 4264757.0,     -11.8
  357700.0, 4264757.0,     -11.8
  357773.0, 4264782.0,     -11.8
  357773.0, 4264783.0,     -11.8
  357750.0, 4264738.0,     -11.8
  357750.0, 4264742.0,     -11.8
  357770.0, 4264776.0,     -11.8
  357772.0, 4264780.0,     -11.8
  357773.0, 4264781.0,     -11.8
  357773.0, 4264780.0,     -11.8
  357772.0, 4264781.0,     -11.8
  357692.0, 4264782.0,     -11.8
  357779.0, 4264791.0,     -11.7
  357779.0, 4264792.0,     -11.7
  357786.0, 4264817.0,     -11.7
  357751.0, 4264738.0,     -11.7
  357751.0, 4264739.0,     -11.7
  357691.0, 4264788.0,     -11.7
  357791.0, 4264827.0,     -11.7
  357791.0, 4264826.0,     -11.7
  357791.0, 4264828.0,     -11.7
  357685.0, 4264783.0,     -11.7
  357790.0, 4264828.0,     -11.7
  357685.0, 4264784.0,     -11.7
  357775.0, 4264776.0,     -11.7
  357774.0, 4264776.0,     -11.7
  357687.0, 4264790.0,     -11.7
  357774.0, 4264843.0,     -11.7
  357774.0, 4264775.0,     -11.7
  357773.0, 4264775.0,     -11.7
  357686.0, 4264790.0,     -11.7
  357774.0, 4264777.0,     -11.7
  357789.0, 4264831.0,     -11.7
  357773.0, 4264776.0,     -11.7
  357788.0, 4264824.0,     -11.7
  357787.0, 4264824.0,     -11.7
  357774.0, 4264778.0,     -11.7
  357773.0, 4264779.0,     -11.7
  357684.0, 4264788.0,     -11.7
  357774.0, 4264780.0,     -11.7
  357774.0, 4264781.0,     -11.7
  357779.0, 4264789.0,     -11.7
  357779.0, 4264790.0,     -11.7
  357747.0, 4264756.0,     -11.7
  357709.0, 4264758.0,     -11.7
  357782.0, 4264790.0,     -11.7
  357781.0, 4264789.0,     -11.7
  357780.0, 4264789.0,     -11.7
  357789.0, 4264812.0,     -11.7
  357785.0, 4264802.0,     -11.7
  357784.0, 4264801.0,     -11.7
  357784.0, 4264802.0,     -11.7
  357785.0, 4264803.0,     -11.7
  357788.0, 4264813.0,     -11.7
  357788.0, 4264814.0,     -11.7
  357786.0, 4264815.0,     -11.7
  357788.0, 4264818.0,     -11.7
  357787.0, 4264818.0,     -11.7
  357701.0, 4264757.0,     -11.7
  357700.0, 4264756.0,     -11.7
  357718.0, 4264757.0,     -11.7
  357788.0, 4264812.0,     -11.7
  357787.0, 4264813.0,     -11.7
  357779.0, 4264788.0,     -11.7
  357779.0, 4264793.0,     -11.7
  357770.0, 4264775.0,     -11.7
  357729.0, 4264760.0,     -11.7
  357781.0, 4264788.0,     -11.7
  357780.0, 4264788.0,     -11.7
  357787.0, 4264798.0,     -11.7
  357749.0, 4264758.0,     -11.7
  357771.0, 4264845.0,     -11.7
  357759.0, 4264726.0,     -11.7
  357751.0, 4264759.0,     -11.7
  357700.0, 4264772.0,     -11.7
  357772.0, 4264774.0,     -11.7
  357771.0, 4264774.0,     -11.7
  357753.0, 4264761.0,     -11.7
  357751.0, 4264760.0,     -11.7
  357780.0, 4264796.0,     -11.7
  357780.0, 4264797.0,     -11.7
  357780.0, 4264798.0,     -11.7
  357789.0, 4264811.0,     -11.7
  357784.0, 4264804.0,     -11.7
  357787.0, 4264812.0,     -11.7
  357756.0, 4264732.0,     -11.7
  357783.0, 4264824.0,     -11.7
  357776.0, 4264788.0,     -11.7
  357772.0, 4264785.0,     -11.7
  357765.0, 4264772.0,     -11.7
  357765.0, 4264771.0,     -11.7
  357780.0, 4264799.0,     -11.7
  357766.0, 4264773.0,     -11.7
  357765.0, 4264773.0,     -11.7
  357766.0, 4264774.0,     -11.7
  357766.0, 4264775.0,     -11.7
  357770.0, 4264845.0,     -11.7
  357767.0, 4264776.0,     -11.7
  357785.0, 4264805.0,     -11.7
  357784.0, 4264805.0,     -11.7
  357784.0, 4264806.0,     -11.7
  357755.0, 4264763.0,     -11.7
  357755.0, 4264762.0,     -11.7
  357781.0, 4264807.0,     -11.7
  357754.0, 4264762.0,     -11.7
  357752.0, 4264760.0,     -11.7
  357752.0, 4264761.0,     -11.7
  357780.0, 4264823.0,     -11.7
  357748.0, 4264718.0,     -11.7
  357774.0, 4264787.0,     -11.7
  357747.0, 4264718.0,     -11.7
  357773.0, 4264786.0,     -11.7
  357755.0, 4264735.0,     -11.7
  357783.0, 4264805.0,     -12.1
  357781.0, 4264806.0,     -12.0
  357754.0, 4264763.0,     -11.9
  357753.0, 4264762.0,     -11.9
  357776.0, 4264841.0,     -11.5
  357748.0, 4264753.0,     -11.5
  357787.0, 4264832.0,     -11.5
  357747.0, 4264754.0,     -11.5
  357748.0, 4264757.0,     -11.5
  357785.0, 4264833.0,     -11.5
  357783.0, 4264834.0,     -11.5
  357716.0, 4264756.0,     -11.5
  357751.0, 4264737.0,     -11.5
  357690.0, 4264788.0,     -11.5
  357775.0, 4264782.0,     -11.5
  357750.0, 4264739.0,     -11.5
  357774.0, 4264782.0,     -11.5
  357689.0, 4264782.0,     -11.5
  357688.0, 4264783.0,     -11.5
  357687.0, 4264783.0,     -11.5
  357781.0, 4264791.0,     -11.5
  357784.0, 4264792.0,     -11.5
  357784.0, 4264793.0,     -11.5
  357788.0, 4264798.0,     -11.5
  357775.0, 4264777.0,     -11.5
  357783.0, 4264792.0,     -11.5
  357686.0, 4264789.0,     -11.5
  357685.0, 4264789.0,     -11.5
  357775.0, 4264778.0,     -11.5
  357782.0, 4264792.0,     -11.5
  357775.0, 4264780.0,     -11.5
  357781.0, 4264792.0,     -11.5
  357775.0, 4264781.0,     -11.5
  357784.0, 4264794.0,     -11.5
  357783.0, 4264794.0,     -11.5
  357774.0, 4264774.0,     -11.5
  357773.0, 4264774.0,     -11.5
  357684.0, 4264787.0,     -11.5
  357780.0, 4264793.0,     -11.5
  357780.0, 4264792.0,     -11.5
  357774.0, 4264779.0,     -11.5
  357704.0, 4264763.0,     -11.5
  357789.0, 4264813.0,     -11.5
  357786.0, 4264801.0,     -11.5
  357785.0, 4264801.0,     -11.5
  357700.0, 4264755.0,     -11.5
  357792.0, 4264827.0,     -11.5
  357700.0, 4264776.0,     -11.5
  357788.0, 4264819.0,     -11.4
  357701.0, 4264755.0,     -11.4
  357701.0, 4264756.0,     -11.4
  357788.0, 4264832.0,     -11.4
  357790.0, 4264818.0,     -11.4
  357747.0, 4264755.0,     -11.4
  357748.0, 4264756.0,     -11.4
  357789.0, 4264818.0,     -11.4
  357784.0, 4264800.0,     -11.4
  357784.0, 4264834.0,     -11.4
  357789.0, 4264798.0,     -11.4
  357782.0, 4264788.0,     -11.4
  357782.0, 4264789.0,     -11.4
  357780.0, 4264836.0,     -11.4
  357779.0, 4264785.0,     -11.4
  357779.0, 4264786.0,     -11.4
  357778.0, 4264785.0,     -11.4
  357785.0, 4264792.0,     -11.4
  357785.0, 4264791.0,     -11.4
  357750.0, 4264743.0,     -11.4
  357784.0, 4264791.0,     -11.4
  357686.0, 4264783.0,     -11.4
  357749.0, 4264744.0,     -11.4
  357784.0, 4264795.0,     -11.4
  357788.0, 4264797.0,     -11.4
  357775.0, 4264775.0,     -11.4
  357775.0, 4264774.0,     -11.4
  357788.0, 4264799.0,     -11.4
  357685.0, 4264788.0,     -11.4
  357787.0, 4264799.0,     -11.4
  357786.0, 4264799.0,     -11.4
  357785.0, 4264799.0,     -11.4
  357785.0, 4264800.0,     -11.4
  357775.0, 4264779.0,     -11.4
  357783.0, 4264791.0,     -11.4
  357684.0, 4264786.0,     -11.4
  357783.0, 4264793.0,     -11.4
  357782.0, 4264791.0,     -11.4
  357781.0, 4264814.0,     -11.4
  357782.0, 4264793.0,     -11.4
  357781.0, 4264793.0,     -11.4
  357783.0, 4264795.0,     -11.4
  357782.0, 4264794.0,     -11.4
  357792.0, 4264828.0,     -11.4
  357790.0, 4264825.0,     -11.4
  357769.0, 4264776.0,     -11.4
  357791.0, 4264829.0,     -11.4
  357790.0, 4264831.0,     -11.4
  357715.0, 4264756.0,     -11.4
  357728.0, 4264763.0,     -11.4
  357749.0, 4264757.0,     -11.4
  357750.0, 4264758.0,     -11.4
  357778.0, 4264786.0,     -11.4
  357779.0, 4264787.0,     -11.4
  357754.0, 4264761.0,     -11.4
  357778.0, 4264787.0,     -11.4
  357752.0, 4264759.0,     -11.4
  357753.0, 4264760.0,     -11.4
  357785.0, 4264804.0,     -11.4
  357786.0, 4264805.0,     -11.4
  357786.0, 4264804.0,     -11.4
  357784.0, 4264824.0,     -11.4
  357772.0, 4264845.0,     -11.4
  357788.0, 4264809.0,     -11.4
  357788.0, 4264811.0,     -11.4
  357728.0, 4264760.0,     -11.4
  357786.0, 4264812.0,     -11.4
  357776.0, 4264782.0,     -11.2
  357786.0, 4264818.0,     -11.2
  357782.0, 4264814.0,     -11.2
  357780.0, 4264812.0,     -11.2
  357750.0, 4264757.0,     -11.2
  357749.0, 4264756.0,     -11.2
  357780.0, 4264813.0,     -11.2
  357748.0, 4264755.0,     -11.2
  357776.0, 4264777.0,     -11.2
  357776.0, 4264776.0,     -11.2
  357776.0, 4264781.0,     -11.2
  357789.0, 4264799.0,     -11.2
  357783.0, 4264786.0,     -11.2
  357782.0, 4264786.0,     -11.2
  357782.0, 4264787.0,     -11.2
  357789.0, 4264832.0,     -11.2
  357786.0, 4264833.0,     -11.2
  357780.0, 4264787.0,     -11.2
  357717.0, 4264757.0,     -11.2
  357729.0, 4264763.0,     -11.2
  357695.0, 4264780.0,     -11.2
  357768.0, 4264776.0,     -11.2
  357788.0, 4264796.0,     -11.2
  357783.0, 4264800.0,     -11.2
  357791.0, 4264818.0,     -11.2
  357780.0, 4264810.0,     -11.2
  357686.0, 4264784.0,     -11.2
  357788.0, 4264815.0,     -11.2
  357785.0, 4264793.0,     -11.1
  357784.0, 4264796.0,     -11.1
  357789.0, 4264797.0,     -11.1
  357751.0, 4264758.0,     -11.1
  357783.0, 4264796.0,     -11.1
  357783.0, 4264785.0,     -11.1
  357783.0, 4264784.0,     -11.1
  357782.0, 4264784.0,     -11.1
  357782.0, 4264785.0,     -11.1
  357781.0, 4264783.0,     -11.1
  357780.0, 4264782.0,     -11.1
  357714.0, 4264756.0,     -11.1
  357780.0, 4264786.0,     -11.1
  357783.0, 4264787.0,     -11.1
  357783.0, 4264789.0,     -11.1
  357776.0, 4264779.0,     -11.1
  357790.0, 4264817.0,     -11.1
  357783.0, 4264790.0,     -11.1
  357708.0, 4264759.0,     -11.1
  357789.0, 4264817.0,     -11.1
  357776.0, 4264780.0,     -11.1
  357790.0, 4264819.0,     -11.1
  357789.0, 4264819.0,     -11.1
  357788.0, 4264795.0,     -11.1
  357687.0, 4264789.0,     -11.1
  357685.0, 4264785.0,     -11.1
  357780.0, 4264811.0,     -11.1
  357793.0, 4264827.0,     -11.1
  357793.0, 4264828.0,     -11.1
  357792.0, 4264829.0,     -11.1
  357779.0, 4264837.0,     -11.1
  357788.0, 4264820.0,     -11.1
  357781.0, 4264836.0,     -11.1
  357722.0, 4264758.0,     -11.1
  357783.0, 4264799.0,     -11.1
  357792.0, 4264826.0,     -11.1
  357781.0, 4264798.0,     -11.1
  357789.0, 4264824.0,     -11.1
  357789.0, 4264809.0,     -11.1
  357787.0, 4264805.0,     -11.1
  357787.0, 4264804.0,     -11.1
  357786.0, 4264803.0,     -11.1
  357782.0, 4264823.0,     -11.1
  357781.0, 4264823.0,     -11.1
  357787.0, 4264807.0,     -11.1
  357788.0, 4264807.0,     -11.1
  357787.0, 4264806.0,     -11.1
  357788.0, 4264808.0,     -11.1
  357781.0, 4264809.0,     -11.1
  357787.0, 4264811.0,     -11.1
  357786.0, 4264810.0,     -11.1
  357767.0, 4264775.0,     -11.1
  357755.0, 4264761.0,     -11.1
  357777.0, 4264787.0,     -11.1
  357756.0, 4264761.0,     -11.1
  357782.0, 4264809.0,     -11.1
  357789.0, 4264810.0,     -11.1
  357775.0, 4264787.0,     -11.1
  357787.0, 4264808.0,     -11.2
  357787.0, 4264809.0,     -11.3
  357787.0, 4264810.0,     -11.3
  357765.0, 4264769.0,     -11.1
  357765.0, 4264770.0,     -11.1
  357766.0, 4264772.0,     -11.1
  357766.0, 4264771.0,     -11.1
  357767.0, 4264772.0,     -11.1
  357766.0, 4264770.0,     -11.1
  357767.0, 4264773.0,     -11.1
  357785.0, 4264810.0,     -11.1
  357785.0, 4264809.0,     -11.1
  357784.0, 4264809.0,     -11.1
  357784.0, 4264808.0,     -11.1
  357783.0, 4264808.0,     -11.1
  357757.0, 4264763.0,     -11.1
  357783.0, 4264809.0,     -11.1
  357757.0, 4264762.0,     -11.1
  357756.0, 4264762.0,     -11.1
  357746.0, 4264717.0,     -11.1
  357759.0, 4264728.0,     -11.1
  357765.0, 4264768.0,     -11.1
  357763.0, 4264767.0,     -11.1
  357786.0, 4264806.0,     -11.3
  357786.0, 4264807.0,     -11.3
  357788.0, 4264810.0,     -11.5
  357756.0, 4264763.0,     -11.5
  357786.0, 4264808.0,     -11.4
  357786.0, 4264809.0,     -11.4
  357785.0, 4264806.0,     -11.6
  357785.0, 4264807.0,     -11.5
  357785.0, 4264808.0,     -11.3
  357784.0, 4264807.0,     -11.4
  357783.0, 4264807.0,     -11.4
  357782.0, 4264807.0,     -11.5
  357782.0, 4264808.0,     -11.3
  357781.0, 4264808.0,     -11.3
  357768.0, 4264845.0,     -11.1
  357745.0, 4264717.0,     -11.1
  357762.0, 4264766.0,     -11.1
  357767.0, 4264845.0,     -11.1
  357761.0, 4264766.0,     -11.1
  357744.0, 4264716.0,     -11.1
  357766.0, 4264845.0,     -11.1
  357760.0, 4264765.0,     -11.1
  357765.0, 4264844.0,     -11.1
  357764.0, 4264768.0,     -11.1
  357759.0, 4264764.0,     -11.1
  357758.0, 4264763.0,     -11.1
  357783.0, 4264806.0,     -11.8
  357744.0, 4264717.0,     -11.4
  357761.0, 4264767.0,     -11.5
  357760.0, 4264766.0,     -11.5
  357760.0, 4264767.0,     -11.8
  357764.0, 4264769.0,     -11.4
  357764.0, 4264770.0,     -11.7
  357763.0, 4264769.0,     -11.7
  357763.0, 4264770.0,     -12.0
  357764.0, 4264771.0,     -12.0
  357761.0, 4264769.0,     -11.9
  357759.0, 4264765.0,     -11.4
  357758.0, 4264764.0,     -11.3
  357758.0, 4264765.0,     -11.7
  357759.0, 4264766.0,     -11.8
  357759.0, 4264767.0,     -12.1
  357758.0, 4264766.0,     -12.0
  357757.0, 4264764.0,     -11.7
  357757.0, 4264765.0,     -12.0
  357755.0, 4264764.0,     -12.0
  357769.0, 4264845.0,     -11.7
  357782.0, 4264806.0,     -12.1
  357763.0, 4264844.0,     -11.1
  357741.0, 4264715.0,     -11.1
  357742.0, 4264715.0,     -11.1
  357763.0, 4264843.0,     -12.0
  357760.0, 4264772.0,     -13.0
  357755.0, 4264767.0,     -12.8
  357755.0, 4264770.0,     -13.2
  357764.0, 4264844.0,     -11.8
  357762.0, 4264771.0,     -12.4
  357761.0, 4264773.0,     -13.1
  357762.0, 4264775.0,     -13.3
  357757.0, 4264766.0,     -12.2
  357759.0, 4264768.0,     -12.3
  357754.0, 4264766.0,     -12.8
  357752.0, 4264768.0,     -13.4
  357743.0, 4264717.0,     -11.9
  357787.0, 4264778.0,     -10.9
  357781.0, 4264786.0,     -10.9
  357791.0, 4264817.0,     -10.9
  357785.0, 4264778.0,     -10.9
  357785.0, 4264779.0,     -10.9
  357784.0, 4264778.0,     -10.9
  357791.0, 4264830.0,     -10.9
  357784.0, 4264779.0,     -10.9
  357784.0, 4264780.0,     -10.9
  357783.0, 4264780.0,     -10.9
  357783.0, 4264779.0,     -10.9
  357789.0, 4264795.0,     -10.9
  357787.0, 4264820.0,     -10.9
  357750.0, 4264756.0,     -10.9
  357749.0, 4264755.0,     -10.9
  357785.0, 4264795.0,     -10.9
  357789.0, 4264796.0,     -10.9
  357748.0, 4264754.0,     -10.9
  357786.0, 4264798.0,     -10.9
  357783.0, 4264835.0,     -10.9
  357786.0, 4264796.0,     -10.9
  357786.0, 4264797.0,     -10.9
  357785.0, 4264796.0,     -10.9
  357785.0, 4264797.0,     -10.9
  357779.0, 4264782.0,     -10.9
  357785.0, 4264811.0,     -10.9
  357784.0, 4264790.0,     -10.9
  357783.0, 4264783.0,     -10.9
  357784.0, 4264799.0,     -10.9
  357782.0, 4264783.0,     -10.9
  357777.0, 4264784.0,     -10.9
  357776.0, 4264778.0,     -10.9
  357781.0, 4264782.0,     -10.9
  357780.0, 4264783.0,     -10.9
  357777.0, 4264779.0,     -10.9
  357777.0, 4264780.0,     -10.9
  357689.0, 4264783.0,     -10.9
  357777.0, 4264781.0,     -10.9
  357781.0, 4264796.0,     -10.9
  357780.0, 4264784.0,     -10.9
  357782.0, 4264796.0,     -10.9
  357780.0, 4264785.0,     -10.9
  357782.0, 4264798.0,     -10.9
  357783.0, 4264788.0,     -10.9
  357769.0, 4264775.0,     -10.9
  357792.0, 4264808.0,     -10.9
  357791.0, 4264808.0,     -10.9
  357792.0, 4264809.0,     -10.9
  357791.0, 4264809.0,     -10.9
  357700.0, 4264775.0,     -10.9
  357782.0, 4264810.0,     -10.9
  357782.0, 4264811.0,     -10.9
  357781.0, 4264811.0,     -10.9
  357686.0, 4264788.0,     -10.9
  357685.0, 4264787.0,     -10.9
  357781.0, 4264810.0,     -10.9
  357752.0, 4264758.0,     -10.9
  357781.0, 4264812.0,     -10.9
  357781.0, 4264813.0,     -10.9
  357793.0, 4264821.0,     -10.9
  357791.0, 4264820.0,     -10.9
  357791.0, 4264819.0,     -10.9
  357790.0, 4264820.0,     -10.9
  357789.0, 4264816.0,     -10.8
  357787.0, 4264779.0,     -10.8
  357790.0, 4264832.0,     -10.8
  357708.0, 4264760.0,     -10.8
  357789.0, 4264833.0,     -10.8
  357787.0, 4264801.0,     -10.8
  357787.0, 4264802.0,     -10.8
  357750.0, 4264755.0,     -10.8
  357749.0, 4264754.0,     -10.8
  357751.0, 4264757.0,     -10.8
  357787.0, 4264803.0,     -10.8
  357753.0, 4264725.0,     -10.8
  357786.0, 4264802.0,     -10.8
  357730.0, 4264764.0,     -10.8
  357790.0, 4264797.0,     -10.8
  357790.0, 4264798.0,     -10.8
  357788.0, 4264806.0,     -10.8
  357726.0, 4264766.0,     -10.8
  357776.0, 4264775.0,     -10.8
  357777.0, 4264775.0,     -10.8
  357785.0, 4264812.0,     -10.8
  357784.0, 4264812.0,     -10.8
  357784.0, 4264813.0,     -10.8
  357777.0, 4264782.0,     -10.8
  357687.0, 4264784.0,     -10.8
  357784.0, 4264782.0,     -10.8
  357784.0, 4264783.0,     -10.8
  357783.0, 4264782.0,     -10.8
  357788.0, 4264833.0,     -10.8
  357782.0, 4264782.0,     -10.8
  357787.0, 4264833.0,     -10.8
  357721.0, 4264771.0,     -10.8
  357786.0, 4264834.0,     -10.8
  357785.0, 4264834.0,     -10.8
  357779.0, 4264783.0,     -10.8
  357784.0, 4264789.0,     -10.8
  357781.0, 4264787.0,     -10.8
  357786.0, 4264795.0,     -10.8
  357787.0, 4264796.0,     -10.8
  357700.0, 4264777.0,     -10.8
  357785.0, 4264794.0,     -10.8
  357787.0, 4264797.0,     -10.8
  357698.0, 4264778.0,     -10.8
  357786.0, 4264800.0,     -10.8
  357783.0, 4264797.0,     -10.8
  357782.0, 4264797.0,     -10.8
  357793.0, 4264818.0,     -10.8
  357792.0, 4264818.0,     -10.8
  357792.0, 4264817.0,     -10.8
  357782.0, 4264812.0,     -10.8
  357783.0, 4264813.0,     -10.8
  357793.0, 4264819.0,     -10.8
  357792.0, 4264819.0,     -10.8
  357782.0, 4264813.0,     -10.8
  357755.0, 4264760.0,     -10.8
  357754.0, 4264760.0,     -10.8
  357753.0, 4264759.0,     -10.8
  357751.0, 4264746.0,     -10.8
  357794.0, 4264821.0,     -10.8
  357793.0, 4264820.0,     -10.8
  357792.0, 4264820.0,     -10.8
  357793.0, 4264822.0,     -10.8
  357791.0, 4264825.0,     -10.8
  357788.0, 4264805.0,     -10.8
  357782.0, 4264795.0,     -10.8
  357789.0, 4264808.0,     -10.8
  357757.0, 4264761.0,     -10.8
  357784.0, 4264798.0,     -10.8
  357781.0, 4264797.0,     -10.8
  357790.0, 4264810.0,     -10.8
  357790.0, 4264809.0,     -10.8
  357790.0, 4264811.0,     -10.8
  357767.0, 4264771.0,     -10.8
  357768.0, 4264775.0,     -10.8
  357786.0, 4264811.0,     -10.8
  357774.0, 4264786.0,     -10.8
  357773.0, 4264785.0,     -10.8
  357784.0, 4264811.0,     -10.8
  357777.0, 4264822.0,     -10.8
  357793.0, 4264812.0,     -10.6
  357795.0, 4264821.0,     -10.6
  357794.0, 4264819.0,     -10.6
  357794.0, 4264820.0,     -10.6
  357784.0, 4264788.0,     -10.6
  357792.0, 4264814.0,     -10.6
  357775.0, 4264843.0,     -10.6
  357786.0, 4264778.0,     -10.6
  357786.0, 4264779.0,     -10.6
  357786.0, 4264780.0,     -10.6
  357793.0, 4264817.0,     -10.6
  357785.0, 4264780.0,     -10.6
  357792.0, 4264821.0,     -10.6
  357784.0, 4264781.0,     -10.6
  357783.0, 4264781.0,     -10.6
  357787.0, 4264791.0,     -10.6
  357787.0, 4264792.0,     -10.6
  357790.0, 4264816.0,     -10.6
  357786.0, 4264791.0,     -10.6
  357786.0, 4264792.0,     -10.6
  357787.0, 4264795.0,     -10.6
  357793.0, 4264826.0,     -10.6
  357793.0, 4264829.0,     -10.6
  357750.0, 4264720.0,     -10.6
  357792.0, 4264830.0,     -10.6
  357791.0, 4264831.0,     -10.6
  357752.0, 4264736.0,     -10.6
  357788.0, 4264800.0,     -10.6
  357787.0, 4264800.0,     -10.6
  357789.0, 4264806.0,     -10.6
  357777.0, 4264776.0,     -10.6
  357785.0, 4264798.0,     -10.6
  357777.0, 4264777.0,     -10.6
  357729.0, 4264765.0,     -10.6
  357784.0, 4264797.0,     -10.6
  357780.0, 4264837.0,     -10.6
  357779.0, 4264784.0,     -10.6
  357778.0, 4264784.0,     -10.6
  357751.0, 4264756.0,     -10.6
  357688.0, 4264784.0,     -10.6
  357783.0, 4264812.0,     -10.6
  357686.0, 4264785.0,     -10.6
  357753.0, 4264758.0,     -10.6
  357789.0, 4264807.0,     -10.6
  357796.0, 4264814.0,     -10.6
  357796.0, 4264815.0,     -10.6
  357795.0, 4264814.0,     -10.6
  357795.0, 4264815.0,     -10.6
  357797.0, 4264819.0,     -10.6
  357797.0, 4264820.0,     -10.6
  357796.0, 4264820.0,     -10.6
  357778.0, 4264840.0,     -10.6
  357796.0, 4264821.0,     -10.6
  357795.0, 4264820.0,     -10.6
  357784.0, 4264784.0,     -10.6
  357784.0, 4264785.0,     -10.6
  357781.0, 4264785.0,     -10.6
  357781.0, 4264784.0,     -10.6
  357715.0, 4264776.0,     -10.6
  357698.0, 4264779.0,     -10.6
  357793.0, 4264811.0,     -10.5
  357788.0, 4264778.0,     -10.5
  357792.0, 4264812.0,     -10.5
  357786.0, 4264777.0,     -10.5
  357790.0, 4264814.0,     -10.5
  357790.0, 4264815.0,     -10.5
  357749.0, 4264753.0,     -10.5
  357793.0, 4264816.0,     -10.5
  357750.0, 4264754.0,     -10.5
  357792.0, 4264816.0,     -10.5
  357750.0, 4264753.0,     -10.5
  357785.0, 4264781.0,     -10.5
  357709.0, 4264759.0,     -10.5
  357789.0, 4264791.0,     -10.5
  357789.0, 4264792.0,     -10.5
  357790.0, 4264794.0,     -10.5
  357785.0, 4264782.0,     -10.5
  357789.0, 4264794.0,     -10.5
  357790.0, 4264795.0,     -10.5
  357789.0, 4264793.0,     -10.5
  357790.0, 4264796.0,     -10.5
  357792.0, 4264831.0,     -10.5
  357792.0, 4264832.0,     -10.5
  357791.0, 4264832.0,     -10.5
  357791.0, 4264816.0,     -10.5
  357789.0, 4264815.0,     -10.5
  357751.0, 4264722.0,     -10.5
  357784.0, 4264786.0,     -10.5
  357788.0, 4264804.0,     -10.5
  357778.0, 4264780.0,     -10.5
  357778.0, 4264781.0,     -10.5
  357701.0, 4264765.0,     -10.5
  357701.0, 4264776.0,     -10.5
  357756.0, 4264760.0,     -10.5
  357773.0, 4264784.0,     -10.5
  357752.0, 4264757.0,     -10.5
  357779.0, 4264820.0,     -10.5
  357783.0, 4264811.0,     -10.5
  357783.0, 4264810.0,     -10.5
  357777.0, 4264841.0,     -10.5
  357798.0, 4264819.0,     -10.5
  357798.0, 4264820.0,     -10.5
  357796.0, 4264819.0,     -10.5
  357795.0, 4264819.0,     -10.5
  357788.0, 4264791.0,     -10.5
  357788.0, 4264792.0,     -10.5
  357788.0, 4264794.0,     -10.5
  357786.0, 4264794.0,     -10.5
  357783.0, 4264798.0,     -10.5
  357794.0, 4264811.0,     -10.5
  357794.0, 4264812.0,     -10.5
  357797.0, 4264818.0,     -10.5
  357794.0, 4264815.0,     -10.5
  357795.0, 4264816.0,     -10.5
  357794.0, 4264816.0,     -10.5
  357691.0, 4264787.0,     -10.5
  357782.0, 4264781.0,     -10.5
  357781.0, 4264781.0,     -10.5
  357788.0, 4264823.0,     -10.5
  357785.0, 4264824.0,     -10.5
  357783.0, 4264822.0,     -10.5
  357783.0, 4264823.0,     -10.5
  357790.0, 4264808.0,     -10.5
  357785.0, 4264777.0,     -10.5
  357758.0, 4264761.0,     -10.5
  357784.0, 4264810.0,     -10.5
  357784.0, 4264777.0,     -10.5
  357783.0, 4264778.0,     -10.5
  357790.0, 4264812.0,     -10.5
  357787.0, 4264823.0,     -10.5
  357768.0, 4264772.0,     -10.5
  357767.0, 4264770.0,     -10.5
  357768.0, 4264773.0,     -10.5
  357767.0, 4264774.0,     -10.5
  357766.0, 4264767.0,     -10.5
  357747.0, 4264717.0,     -10.5
  357765.0, 4264767.0,     -10.5
  357766.0, 4264768.0,     -10.5
  357766.0, 4264769.0,     -10.5
  357760.0, 4264726.0,     -10.5
  357764.0, 4264767.0,     -10.5
  357764.0, 4264766.0,     -10.5
  357763.0, 4264766.0,     -10.5
  357761.0, 4264764.0,     -10.5
  357760.0, 4264763.0,     -10.5
  357759.0, 4264763.0,     -10.5
  357758.0, 4264762.0,     -10.5
  357760.0, 4264764.0,     -10.6
  357754.0, 4264759.0,     -10.3
  357794.0, 4264822.0,     -10.3
  357794.0, 4264827.0,     -10.3
  357794.0, 4264828.0,     -10.3
  357787.0, 4264777.0,     -10.3
  357792.0, 4264822.0,     -10.3
  357793.0, 4264815.0,     -10.3
  357786.0, 4264782.0,     -10.3
  357789.0, 4264820.0,     -10.3
  357786.0, 4264781.0,     -10.3
  357784.0, 4264787.0,     -10.3
  357751.0, 4264754.0,     -10.3
  357751.0, 4264755.0,     -10.3
  357790.0, 4264833.0,     -10.3
  357799.0, 4264813.0,     -10.3
  357798.0, 4264813.0,     -10.3
  357798.0, 4264818.0,     -10.3
  357798.0, 4264817.0,     -10.3
  357788.0, 4264793.0,     -10.3
  357791.0, 4264793.0,     -10.3
  357790.0, 4264793.0,     -10.3
  357787.0, 4264793.0,     -10.3
  357791.0, 4264794.0,     -10.3
  357787.0, 4264794.0,     -10.3
  357788.0, 4264834.0,     -10.3
  357690.0, 4264787.0,     -10.3
  357787.0, 4264834.0,     -10.3
  357789.0, 4264800.0,     -10.3
  357784.0, 4264835.0,     -10.3
  357786.0, 4264783.0,     -10.3
  357776.0, 4264774.0,     -10.3
  357685.0, 4264786.0,     -10.3
  357703.0, 4264764.0,     -10.3
  357778.0, 4264783.0,     -10.3
  357775.0, 4264786.0,     -10.3
  357700.0, 4264773.0,     -10.3
  357789.0, 4264805.0,     -10.3
  357757.0, 4264760.0,     -10.3
  357774.0, 4264785.0,     -10.3
  357752.0, 4264756.0,     -10.3
  357778.0, 4264821.0,     -10.3
  357697.0, 4264780.0,     -10.3
  357755.0, 4264759.0,     -10.3
  357793.0, 4264813.0,     -10.3
  357796.0, 4264816.0,     -10.3
  357696.0, 4264780.0,     -10.3
  357791.0, 4264814.0,     -10.3
  357789.0, 4264814.0,     -10.3
  357792.0, 4264815.0,     -10.3
  357788.0, 4264801.0,     -10.3
  357788.0, 4264802.0,     -10.3
  357787.0, 4264780.0,     -10.2
  357793.0, 4264831.0,     -10.2
  357793.0, 4264832.0,     -10.2
  357782.0, 4264780.0,     -10.2
  357749.0, 4264718.0,     -10.2
  357789.0, 4264834.0,     -10.2
  357785.0, 4264820.0,     -10.2
  357784.0, 4264823.0,     -10.2
  357691.0, 4264783.0,     -10.2
  357690.0, 4264783.0,     -10.2
  357770.0, 4264774.0,     -10.2
  357756.0, 4264759.0,     -10.2
  357754.0, 4264758.0,     -10.2
  357752.0, 4264755.0,     -10.2
  357752.0, 4264754.0,     -10.2
  357753.0, 4264757.0,     -10.2
  357789.0, 4264804.0,     -10.2
  357755.0, 4264758.0,     -10.2
  357778.0, 4264822.0,     -10.2
  357702.0, 4264764.0,     -10.2
  357700.0, 4264767.0,     -10.2
  357795.0, 4264813.0,     -10.2
  357794.0, 4264813.0,     -10.2
  357701.0, 4264777.0,     -10.2
  357793.0, 4264814.0,     -10.2
  357797.0, 4264815.0,     -10.2
  357797.0, 4264816.0,     -10.2
  357750.0, 4264745.0,     -10.2
  357751.0, 4264747.0,     -10.2
  357751.0, 4264748.0,     -10.2
  357750.0, 4264752.0,     -10.2
  357797.0, 4264817.0,     -10.2
  357796.0, 4264817.0,     -10.2
  357799.0, 4264811.0,     -10.2
  357799.0, 4264812.0,     -10.2
  357798.0, 4264812.0,     -10.2
  357799.0, 4264818.0,     -10.2
  357799.0, 4264817.0,     -10.2
  357791.0, 4264795.0,     -10.2
  357791.0, 4264812.0,     -10.2
  357791.0, 4264792.0,     -10.2
  357790.0, 4264792.0,     -10.2
  357790.0, 4264813.0,     -10.2
  357791.0, 4264815.0,     -10.2
  357791.0, 4264796.0,     -10.2
  357791.0, 4264797.0,     -10.2
  357787.0, 4264782.0,     -10.2
  357787.0, 4264783.0,     -10.2
  357788.0, 4264803.0,     -10.2
  357785.0, 4264783.0,     -10.2
  357787.0, 4264790.0,     -10.2
  357785.0, 4264790.0,     -10.2
  357797.0, 4264821.0,     -10.2
  357782.0, 4264822.0,     -10.2
  357780.0, 4264822.0,     -10.2
  357779.0, 4264822.0,     -10.2
  357791.0, 4264811.0,     -10.2
  357788.0, 4264822.0,     -10.2
  357782.0, 4264779.0,     -10.2
  357781.0, 4264780.0,     -10.2
  357780.0, 4264781.0,     -10.2
  357773.0, 4264773.0,     -10.2
  357768.0, 4264774.0,     -10.2
  357776.0, 4264842.0,     -10.0
  357792.0, 4264833.0,     -10.0
  357786.0, 4264790.0,     -10.0
  357791.0, 4264833.0,     -10.0
  357751.0, 4264749.0,     -10.0
  357751.0, 4264750.0,     -10.0
  357789.0, 4264823.0,     -10.0
  357751.0, 4264752.0,     -10.0
  357798.0, 4264811.0,     -10.0
  357796.0, 4264818.0,     -10.0
  357786.0, 4264793.0,     -10.0
  357789.0, 4264790.0,     -10.0
  357792.0, 4264794.0,     -10.0
  357792.0, 4264795.0,     -10.0
  357781.0, 4264822.0,     -10.0
