  357700.5, 4264781.0,      -6.9
  357700.5, 4264781.5,      -6.9
  357700.5, 4264782.0,      -6.9
  357700.5, 4264782.5,      -7.2
  357700.5, 4264783.0,      -7.4
  357700.5, 4264783.5,      -7.5
  357700.5, 4264784.0,      -7.6
  357700.5, 4264784.5,      -7.7
  357700.5, 4264785.0,      -7.8
  357700.5, 4264785.5,      -8.1
  357700.5, 4264786.0,      -8.8
  357700.5, 4264786.5,     -16.1
  357700.5, 4264787.0,     -16.1
  357700.5, 4264787.5,     -16.1
  357700.5, 4264788.0,     -16.1
  357700.5, 4264788.5,     -16.1
  357700.5, 4264789.0,     -16.0
  357700.5, 4264789.5,     -15.9
  357700.5, 4264790.0,     -15.9
  357700.5, 4264790.5,     -15.9
  357700.5, 4264791.0,     -15.8
  357700.5, 4264791.5,     -15.8
  357700.5, 4264792.0,     -15.8
  357700.5, 4264792.5,     -15.7
  357700.5, 4264793.0,     -15.6
  357700.5, 4264793.5,     -15.6
  357700.5, 4264794.0,     -15.6
  357700.5, 4264794.5,     -15.6
  357700.5, 4264795.0,     -15.6
  357700.5, 4264795.5,     -15.6
  357700.5, 4264796.0,     -15.6
  357700.5, 4264796.5,     -15.6
  357700.5, 4264797.0,     -15.8
  357700.5, 4264797.5,     -15.7
  357700.5, 4264798.0,     -15.7
  357700.5, 4264798.5,     -15.7
  357700.5, 4264799.0,     -15.6
  357700.5, 4264799.5,     -15.5
  357700.5, 4264800.0,     -15.6
  357700.5, 4264800.5,     -15.6
  357700.5, 4264801.0,     -15.7
  357700.5, 4264801.5,     -15.7
  357700.5, 4264802.0,     -15.7
  357700.5, 4264802.5,     -15.7
  357700.5, 4264803.5,     -15.6
  357700.5, 4264804.0,     -15.5
  357700.5, 4264804.5,     -15.4
  357701.0, 4264739.0,     -18.1
  357701.0, 4264739.5,     -18.2
  357701.0, 4264740.0,     -18.3
  357701.0, 4264741.5,     -18.5
  357701.0, 4264742.0,     -18.7
  357701.0, 4264742.5,     -18.8
  357701.0, 4264743.0,     -19.0
  357701.0, 4264743.5,     -19.1
  357701.0, 4264744.0,     -19.0
  357701.0, 4264744.5,     -19.0
  357701.0, 4264745.0,     -19.0
  357701.0, 4264745.5,     -19.0
  357701.0, 4264746.0,     -18.9
  357701.0, 4264746.5,     -18.8
  357701.0, 4264747.0,     -18.8
  357701.0, 4264747.5,     -18.7
  357701.0, 4264748.0,     -18.6
  357701.0, 4264748.5,     -18.5
  357701.0, 4264749.0,     -18.6
  357701.0, 4264749.5,     -18.5
  357701.0, 4264750.0,     -18.5
  357701.0, 4264750.5,     -12.1
  357701.0, 4264751.0,     -12.1
  357701.0, 4264751.5,     -12.2
  357701.0, 4264752.0,     -12.3
  357701.0, 4264752.5,     -15.8
  357701.0, 4264753.0,     -15.2
  357701.0, 4264753.5,     -12.1
  357701.0, 4264754.0,     -11.4
  357701.0, 4264754.5,     -11.3
  357701.0, 4264755.0,     -11.2
  357701.0, 4264755.5,     -11.2
  357701.0, 4264756.0,     -11.2
  357701.0, 4264756.5,     -11.4
  357701.0, 4264757.0,     -11.5
  357701.0, 4264757.5,     -11.6
  357701.0, 4264758.0,     -11.7
  357701.0, 4264758.5,     -12.4
  357701.0, 4264759.0,     -12.4
  357701.0, 4264759.5,     -12.4
  357701.0, 4264760.0,     -12.4
  357701.0, 4264760.5,     -12.3
  357701.0, 4264761.0,     -12.5
  357701.0, 4264761.5,     -12.8
  357701.0, 4264762.0,     -13.0
  357701.0, 4264762.5,     -13.1
  357701.0, 4264763.0,     -13.0
  357701.0, 4264763.5,     -10.3
  357701.0, 4264764.0,      -9.6
  357701.0, 4264764.5,      -9.3
  357701.0, 4264765.0,      -8.7
  357701.0, 4264765.5,      -8.3
  357701.0, 4264766.0,      -8.3
  357701.0, 4264766.5,      -8.3
  357701.0, 4264767.0,      -8.1
  357701.0, 4264767.5,      -8.1
  357701.0, 4264768.0,      -8.1
  357701.0, 4264768.5,      -8.3
  357701.0, 4264769.0,      -8.4
  357701.0, 4264769.5,      -8.4
  357701.0, 4264770.0,      -8.7
  357701.0, 4264770.5,      -9.0
  357701.0, 4264771.0,      -9.0
  357701.0, 4264771.5,      -9.0
  357701.0, 4264772.0,      -9.0
  357701.0, 4264772.5,      -8.3
  357701.0, 4264773.0,      -8.1
  357701.0, 4264773.5,      -8.6
  357701.0, 4264774.0,      -8.5
  357701.0, 4264774.5,      -7.9
  357701.0, 4264775.0,      -7.8
  357701.0, 4264775.5,      -7.1
  357701.0, 4264776.0,      -7.1
  357701.0, 4264776.5,      -7.2
  357701.0, 4264777.0,      -8.4
  357701.0, 4264777.5,      -8.4
  357701.0, 4264778.0,      -8.4
  357701.0, 4264778.5,      -7.8
  357701.0, 4264779.0,      -7.5
  357701.0, 4264779.5,      -7.0
  357701.0, 4264780.0,      -6.9
  357701.0, 4264780.5,      -6.9
  357701.0, 4264781.0,      -6.9
  357701.0, 4264781.5,      -6.9
  357701.0, 4264782.0,      -6.9
  357701.0, 4264782.5,      -7.1
  357701.0, 4264783.0,      -7.2
  357701.0, 4264783.5,      -7.2
  357701.0, 4264784.0,      -7.4
  357701.0, 4264784.5,      -7.5
  357701.0, 4264785.0,      -7.9
  357701.0, 4264785.5,      -8.2
  357701.0, 4264786.0,      -8.7
  357701.0, 4264786.5,     -16.2
  357701.0, 4264787.0,     -16.2
  357701.0, 4264787.5,     -16.2
  357701.0, 4264788.0,     -16.1
  357701.0, 4264788.5,     -16.0
  357701.0, 4264789.0,     -16.0
  357701.0, 4264789.5,     -15.9
  357701.0, 4264790.0,     -15.9
  357701.0, 4264790.5,     -15.9
  357701.0, 4264791.0,     -15.8
  357701.0, 4264791.5,     -15.8
  357701.0, 4264792.0,     -15.7
  357701.0, 4264792.5,     -15.7
  357701.0, 4264793.0,     -15.7
  357701.0, 4264793.5,     -15.6
  357701.0, 4264794.0,     -15.6
  357701.0, 4264794.5,     -15.6
  357701.0, 4264795.0,     -15.6
  357701.0, 4264795.5,     -15.6
  357701.0, 4264796.0,     -15.6
  357701.0, 4264796.5,     -15.7
  357701.0, 4264797.0,     -15.7
  357701.0, 4264797.5,     -15.8
  357701.0, 4264798.0,     -15.8
  357701.0, 4264798.5,     -15.7
  357701.0, 4264799.0,     -15.5
  357701.0, 4264799.5,     -15.5
  357701.0, 4264800.0,     -15.7
  357701.0, 4264800.5,     -15.7
  357701.0, 4264801.0,     -15.7
  357701.0, 4264801.5,     -15.8
  357701.0, 4264802.0,     -15.8
  357701.0, 4264802.5,     -15.7
  357701.0, 4264803.0,     -15.7
  357701.0, 4264803.5,     -15.7
  357701.0, 4264804.0,     -15.5
  357701.0, 4264805.0,     -15.3
  357701.5, 4264743.0,     -18.9
  357701.5, 4264743.5,     -19.0
  357701.5, 4264744.0,     -19.0
  357701.5, 4264744.5,     -19.0
  357701.5, 4264745.0,     -18.9
  357701.5, 4264745.5,     -18.9
  357701.5, 4264746.0,     -18.8
  357701.5, 4264746.5,     -18.8
  357701.5, 4264747.0,     -18.7
  357701.5, 4264747.5,     -18.7
  357701.5, 4264748.0,     -18.5
  357701.5, 4264748.5,     -18.5
  357701.5, 4264749.0,     -18.5
  357701.5, 4264749.5,     -18.4
  357701.5, 4264750.0,     -18.4
  357701.5, 4264750.5,     -11.9
  357701.5, 4264751.0,     -11.7
  357701.5, 4264751.5,     -11.9
  357701.5, 4264752.0,     -12.0
  357701.5, 4264752.5,     -15.7
  357701.5, 4264753.0,     -15.0
  357701.5, 4264753.5,     -12.4
  357701.5, 4264754.0,     -11.7
  357701.5, 4264754.5,     -11.3
  357701.5, 4264755.0,     -11.2
  357701.5, 4264755.5,     -11.2
  357701.5, 4264756.0,     -11.2
  357701.5, 4264756.5,     -11.4
  357701.5, 4264757.0,     -11.5
  357701.5, 4264757.5,     -11.6
  357701.5, 4264758.0,     -12.0
  357701.5, 4264758.5,     -12.2
  357701.5, 4264759.0,     -12.2
  357701.5, 4264759.5,     -12.3
  357701.5, 4264760.0,     -12.3
  357701.5, 4264760.5,     -12.4
  357701.5, 4264761.0,     -12.5
  357701.5, 4264761.5,     -12.8
  357701.5, 4264762.0,     -13.1
  357701.5, 4264762.5,     -13.1
  357701.5, 4264763.0,     -10.3
  357701.5, 4264763.5,      -9.9
  357701.5, 4264764.0,      -9.0
  357701.5, 4264764.5,      -8.3
  357701.5, 4264765.0,      -8.1
  357701.5, 4264765.5,      -8.1
  357701.5, 4264766.0,      -8.1
  357701.5, 4264766.5,      -8.1
  357701.5, 4264767.0,      -7.9
  357701.5, 4264767.5,      -8.0
  357701.5, 4264768.0,      -8.1
  357701.5, 4264768.5,      -8.1
  357701.5, 4264769.0,      -8.3
  357701.5, 4264769.5,      -8.4
  357701.5, 4264770.0,      -8.7
  357701.5, 4264770.5,      -8.7
  357701.5, 4264771.0,      -8.7
  357701.5, 4264771.5,      -8.9
  357701.5, 4264772.0,      -8.8
  357701.5, 4264772.5,      -8.1
  357701.5, 4264773.0,      -8.0
  357701.5, 4264773.5,      -8.8
  357701.5, 4264774.0,      -8.1
  357701.5, 4264774.5,      -7.7
  357701.5, 4264775.0,      -7.7
  357701.5, 4264775.5,      -7.2
  357701.5, 4264776.0,      -7.1
  357701.5, 4264776.5,      -7.1
  357701.5, 4264777.0,      -7.8
  357701.5, 4264777.5,      -8.0
  357701.5, 4264778.0,      -8.1
  357701.5, 4264778.5,      -7.7
  357701.5, 4264779.0,      -6.8
  357701.5, 4264779.5,      -6.9
  357701.5, 4264780.0,      -6.8
  357701.5, 4264780.5,      -6.8
  357701.5, 4264781.0,      -6.8
  357701.5, 4264781.5,      -6.8
  357701.5, 4264782.0,      -6.9
  357701.5, 4264782.5,      -7.1
  357701.5, 4264783.0,      -7.1
  357701.5, 4264783.5,      -7.1
  357701.5, 4264784.0,      -7.3
  357701.5, 4264784.5,      -7.5
  357701.5, 4264785.0,      -7.8
  357701.5, 4264785.5,      -8.4
  357701.5, 4264786.0,      -8.7
  357701.5, 4264786.5,     -16.2
  357701.5, 4264787.0,     -16.2
  357701.5, 4264787.5,     -16.2
  357701.5, 4264788.0,     -16.1
  357701.5, 4264788.5,     -16.1
  357701.5, 4264789.0,     -16.0
  357701.5, 4264789.5,     -16.0
  357701.5, 4264790.0,     -15.9
  357701.5, 4264790.5,     -15.9
  357701.5, 4264791.0,     -15.8
  357701.5, 4264791.5,     -15.8
  357701.5, 4264792.0,     -15.8
  357701.5, 4264792.5,     -15.7
  357701.5, 4264793.0,     -15.7
  357701.5, 4264793.5,     -15.6
  357701.5, 4264794.0,     -15.6
  357701.5, 4264794.5,     -15.6
  357701.5, 4264795.0,     -15.6
  357701.5, 4264795.5,     -15.6
  357701.5, 4264796.0,     -15.6
  357701.5, 4264796.5,     -15.6
  357701.5, 4264797.0,     -15.6
  357701.5, 4264797.5,     -15.6
  357701.5, 4264798.0,     -15.6
  357701.5, 4264798.5,     -15.6
  357701.5, 4264799.0,     -15.6
  357701.5, 4264799.5,     -15.8
  357701.5, 4264800.0,     -15.8
  357701.5, 4264800.5,     -15.8
  357701.5, 4264801.0,     -15.8
  357701.5, 4264801.5,     -15.8
  357701.5, 4264802.0,     -15.9
  357701.5, 4264802.5,     -15.9
  357701.5, 4264803.0,     -15.8
  357702.0, 4264739.0,     -18.2
  357702.0, 4264741.0,     -18.4
  357702.0, 4264741.5,     -18.5
  357702.0, 4264742.0,     -18.6
  357702.0, 4264742.5,     -18.8
  357702.0, 4264743.0,     -19.0
  357702.0, 4264743.5,     -19.0
  357702.0, 4264744.0,     -19.0
  357702.0, 4264744.5,     -19.0
  357702.0, 4264745.0,     -18.9
  357702.0, 4264745.5,     -18.9
  357702.0, 4264746.0,     -18.8
  357702.0, 4264746.5,     -18.8
  357702.0, 4264747.0,     -18.8
  357702.0, 4264747.5,     -18.7
  357702.0, 4264748.0,     -18.5
  357702.0, 4264748.5,     -18.5
  357702.0, 4264749.0,     -18.5
  357702.0, 4264749.5,     -18.5
  357702.0, 4264750.0,     -18.4
  357702.0, 4264750.5,     -12.0
  357702.0, 4264751.0,     -11.7
  357702.0, 4264751.5,     -11.9
  357702.0, 4264752.0,     -12.2
  357702.0, 4264752.5,     -15.8
  357702.0, 4264753.0,     -15.1
  357702.0, 4264753.5,     -12.7
  357702.0, 4264754.0,     -12.0
  357702.0, 4264754.5,     -11.5
  357702.0, 4264755.0,     -11.6
  357702.0, 4264755.5,     -11.7
  357702.0, 4264756.0,     -11.4
  357702.0, 4264756.5,     -11.4
  357702.0, 4264757.0,     -11.5
  357702.0, 4264757.5,     -11.6
  357702.0, 4264758.0,     -12.1
  357702.0, 4264758.5,     -12.2
  357702.0, 4264759.0,     -12.1
  357702.0, 4264759.5,     -12.1
  357702.0, 4264760.0,     -12.1
  357702.0, 4264760.5,     -12.4
  357702.0, 4264761.0,     -12.5
  357702.0, 4264761.5,     -12.8
  357702.0, 4264762.0,     -13.0
  357702.0, 4264762.5,     -10.8
  357702.0, 4264763.0,      -9.7
  357702.0, 4264763.5,      -9.1
  357702.0, 4264764.0,      -7.9
  357702.0, 4264764.5,      -7.7
  357702.0, 4264765.0,      -7.8
  357702.0, 4264765.5,      -8.0
  357702.0, 4264766.0,      -7.8
  357702.0, 4264766.5,      -7.8
  357702.0, 4264767.0,      -7.8
  357702.0, 4264767.5,      -8.0
  357702.0, 4264768.0,      -8.0
  357702.0, 4264768.5,      -8.1
  357702.0, 4264769.0,      -8.2
  357702.0, 4264769.5,      -8.4
  357702.0, 4264770.0,      -8.4
  357702.0, 4264770.5,      -8.5
  357702.0, 4264771.0,      -8.6
  357702.0, 4264771.5,      -8.7
  357702.0, 4264772.0,      -8.1
  357702.0, 4264772.5,      -7.5
  357702.0, 4264773.0,      -7.5
  357702.0, 4264773.5,      -7.3
  357702.0, 4264774.0,      -7.3
  357702.0, 4264774.5,      -7.4
  357702.0, 4264775.0,      -7.4
  357702.0, 4264775.5,      -6.9
  357702.0, 4264776.0,      -6.9
  357702.0, 4264776.5,      -6.9
  357702.0, 4264777.0,      -7.5
  357702.0, 4264777.5,      -7.5
  357702.0, 4264778.0,      -7.5
  357702.0, 4264778.5,      -7.1
  357702.0, 4264779.0,      -6.6
  357702.0, 4264779.5,      -6.5
  357702.0, 4264780.0,      -6.6
  357702.0, 4264780.5,      -6.7
  357702.0, 4264781.0,      -6.6
  357702.0, 4264781.5,      -6.8
  357702.0, 4264782.0,      -6.8
  357702.0, 4264782.5,      -6.8
  357702.0, 4264783.0,      -6.8
  357702.0, 4264783.5,      -6.9
  357702.0, 4264784.0,      -7.2
  357702.0, 4264784.5,      -7.2
  357702.0, 4264785.0,      -7.3
  357702.0, 4264785.5,      -8.6
  357702.0, 4264786.0,     -16.2
  357702.0, 4264786.5,     -16.2
  357702.0, 4264787.0,     -16.2
  357702.0, 4264787.5,     -16.2
  357702.0, 4264788.0,     -16.1
  357702.0, 4264788.5,     -16.1
  357702.0, 4264789.0,     -16.1
  357702.0, 4264789.5,     -15.9
  357702.0, 4264790.0,     -15.9
  357702.0, 4264790.5,     -15.9
  357702.0, 4264791.0,     -15.8
  357702.0, 4264791.5,     -15.8
  357702.0, 4264792.0,     -15.8
  357702.0, 4264792.5,     -15.7
  357702.0, 4264793.0,     -15.7
  357702.0, 4264793.5,     -15.6
  357702.0, 4264794.0,     -15.6
  357702.0, 4264794.5,     -15.6
  357702.0, 4264795.0,     -15.6
  357702.0, 4264795.5,     -15.6
  357702.0, 4264796.0,     -15.6
  357702.0, 4264796.5,     -15.6
  357702.0, 4264797.0,     -15.6
  357702.0, 4264797.5,     -15.6
  357702.0, 4264798.0,     -15.7
  357702.0, 4264798.5,     -15.6
  357702.0, 4264799.0,     -15.7
  357702.0, 4264799.5,     -15.8
  357702.0, 4264800.0,     -15.8
  357702.0, 4264800.5,     -15.9
  357702.0, 4264801.0,     -15.9
  357702.0, 4264801.5,     -15.9
  357702.0, 4264802.0,     -15.9
  357702.0, 4264802.5,     -15.8
  357702.0, 4264803.0,     -15.8
  357702.0, 4264803.5,     -15.7
  357702.0, 4264804.0,     -15.5
  357702.0, 4264804.5,     -15.5
  357702.5, 4264739.0,     -18.2
  357702.5, 4264740.0,     -18.3
  357702.5, 4264741.0,     -18.4
  357702.5, 4264741.5,     -18.5
  357702.5, 4264742.0,     -18.6
  357702.5, 4264742.5,     -18.7
  357702.5, 4264743.0,     -18.8
  357702.5, 4264744.0,     -18.9
  357702.5, 4264744.5,     -18.9
  357702.5, 4264745.0,     -18.9
  357702.5, 4264745.5,     -18.9
  357702.5, 4264746.0,     -18.8
  357702.5, 4264746.5,     -18.8
  357702.5, 4264747.0,     -18.8
  357702.5, 4264747.5,     -18.8
  357702.5, 4264748.0,     -18.8
  357702.5, 4264748.5,     -18.7
  357702.5, 4264749.0,     -18.6
  357702.5, 4264749.5,     -18.5
  357702.5, 4264750.0,     -18.4
  357702.5, 4264750.5,     -18.4
  357702.5, 4264751.0,     -18.4
  357702.5, 4264751.5,     -12.3
  357702.5, 4264752.0,     -17.5
  357702.5, 4264752.5,     -16.0
  357702.5, 4264753.0,     -14.6
  357702.5, 4264753.5,     -13.0
  357702.5, 4264754.0,     -12.4
  357702.5, 4264754.5,     -12.4
  357702.5, 4264755.0,     -12.4
  357702.5, 4264755.5,     -12.2
  357702.5, 4264756.0,     -11.8
  357702.5, 4264756.5,     -11.7
  357702.5, 4264757.0,     -11.3
  357702.5, 4264757.5,     -11.3
  357702.5, 4264758.0,     -12.2
  357702.5, 4264758.5,     -12.2
  357702.5, 4264759.0,     -12.0
  357702.5, 4264759.5,     -12.0
  357702.5, 4264760.0,     -12.1
  357702.5, 4264760.5,     -12.3
  357702.5, 4264761.0,     -12.5
  357702.5, 4264761.5,     -12.8
  357702.5, 4264762.0,     -12.8
  357702.5, 4264762.5,     -10.8
  357702.5, 4264763.0,      -9.6
  357702.5, 4264763.5,      -8.8
  357702.5, 4264764.0,      -7.7
  357702.5, 4264764.5,      -7.3
  357702.5, 4264765.0,      -6.9
  357702.5, 4264765.5,      -6.9
  357702.5, 4264766.0,      -7.4
  357702.5, 4264766.5,      -7.5
  357702.5, 4264767.0,      -7.8
  357702.5, 4264767.5,      -8.0
  357702.5, 4264768.0,      -8.1
  357702.5, 4264768.5,      -8.1
  357702.5, 4264769.0,      -8.1
  357702.5, 4264769.5,      -8.3
  357702.5, 4264770.0,      -8.3
  357702.5, 4264770.5,      -8.4
  357702.5, 4264771.0,      -8.4
  357702.5, 4264771.5,      -8.5
  357702.5, 4264772.0,      -7.6
  357702.5, 4264772.5,      -7.4
  357702.5, 4264773.0,      -7.3
  357702.5, 4264773.5,      -7.0
  357702.5, 4264774.0,      -6.9
  357702.5, 4264774.5,      -6.9
  357702.5, 4264775.0,      -6.7
  357702.5, 4264775.5,      -6.6
  357702.5, 4264776.0,      -6.7
  357702.5, 4264776.5,      -6.8
  357702.5, 4264777.0,      -7.2
  357702.5, 4264777.5,      -7.2
  357702.5, 4264778.0,      -7.2
  357702.5, 4264778.5,      -6.9
  357702.5, 4264779.0,      -6.5
  357702.5, 4264779.5,      -6.4
  357702.5, 4264780.0,      -6.4
  357702.5, 4264780.5,      -6.4
  357702.5, 4264781.0,      -6.4
  357702.5, 4264781.5,      -6.5
  357702.5, 4264782.0,      -6.5
  357702.5, 4264782.5,      -6.8
  357702.5, 4264783.0,      -6.8
  357702.5, 4264783.5,      -6.8
  357702.5, 4264784.0,      -7.2
  357702.5, 4264784.5,      -7.2
  357702.5, 4264785.0,      -7.2
  357702.5, 4264785.5,     -16.2
  357702.5, 4264786.0,     -16.2
  357702.5, 4264786.5,     -16.2
  357702.5, 4264787.0,     -16.2
  357702.5, 4264787.5,     -16.2
  357702.5, 4264788.0,     -16.1
  357702.5, 4264788.5,     -16.0
  357702.5, 4264789.0,     -16.0
  357702.5, 4264789.5,     -15.9
  357702.5, 4264790.0,     -15.9
  357702.5, 4264790.5,     -15.8
  357702.5, 4264791.0,     -15.8
  357702.5, 4264791.5,     -15.8
  357702.5, 4264792.0,     -15.8
  357702.5, 4264792.5,     -15.7
  357702.5, 4264793.0,     -15.7
  357702.5, 4264793.5,     -15.6
  357702.5, 4264794.0,     -15.6
  357702.5, 4264794.5,     -15.6
  357702.5, 4264795.0,     -15.6
  357702.5, 4264795.5,     -15.6
  357702.5, 4264796.0,     -15.5
  357702.5, 4264796.5,     -15.5
  357702.5, 4264797.0,     -15.6
  357702.5, 4264797.5,     -15.7
  357702.5, 4264798.0,     -15.8
  357702.5, 4264798.5,     -15.9
  357702.5, 4264799.0,     -15.9
  357702.5, 4264799.5,     -15.8
  357702.5, 4264800.0,     -15.8
  357702.5, 4264800.5,     -15.9
  357702.5, 4264801.0,     -15.9
  357702.5, 4264801.5,     -16.0
  357702.5, 4264802.0,     -15.9
  357702.5, 4264802.5,     -15.8
  357702.5, 4264803.0,     -15.7
  357702.5, 4264803.5,     -15.7
  357702.5, 4264804.0,     -15.5
  357702.5, 4264805.0,     -15.3
  357703.0, 4264739.5,     -18.3
  357703.0, 4264740.0,     -18.4
  357703.0, 4264741.0,     -18.5
  357703.0, 4264741.5,     -18.5
  357703.0, 4264742.0,     -18.6
  357703.0, 4264742.5,     -18.7
  357703.0, 4264743.0,     -18.8
  357703.0, 4264744.0,     -18.8
  357703.0, 4264744.5,     -18.9
  357703.0, 4264745.0,     -18.9
  357703.0, 4264745.5,     -18.9
  357703.0, 4264746.0,     -18.8
  357703.0, 4264746.5,     -18.8
  357703.0, 4264747.0,     -18.8
  357703.0, 4264747.5,     -18.8
  357703.0, 4264748.0,     -18.7
  357703.0, 4264748.5,     -18.7
  357703.0, 4264749.0,     -18.6
  357703.0, 4264749.5,     -12.2
  357703.0, 4264750.0,     -18.4
  357703.0, 4264750.5,     -18.4
  357703.0, 4264751.0,     -18.1
  357703.0, 4264751.5,     -17.4
  357703.0, 4264752.0,     -17.3
  357703.0, 4264752.5,     -17.2
  357703.0, 4264753.0,     -14.6
  357703.0, 4264753.5,     -13.1
  357703.0, 4264754.0,     -12.5
  357703.0, 4264754.5,     -12.3
  357703.0, 4264755.0,     -12.2
  357703.0, 4264755.5,     -12.2
  357703.0, 4264756.0,     -12.2
  357703.0, 4264756.5,     -12.1
  357703.0, 4264757.0,     -12.2
  357703.0, 4264757.5,     -12.2
  357703.0, 4264758.0,     -12.2
  357703.0, 4264758.5,     -12.5
  357703.0, 4264759.0,     -12.5
  357703.0, 4264759.5,     -12.7
  357703.0, 4264760.0,     -12.6
  357703.0, 4264760.5,     -12.6
  357703.0, 4264761.0,     -12.6
  357703.0, 4264761.5,     -12.8
  357703.0, 4264762.0,     -12.0
  357703.0, 4264762.5,     -11.8
  357703.0, 4264763.0,     -10.5
  357703.0, 4264763.5,      -8.7
  357703.0, 4264764.0,      -7.9
  357703.0, 4264764.5,      -7.3
  357703.0, 4264765.0,      -6.9
  357703.0, 4264765.5,      -6.5
  357703.0, 4264766.0,      -6.5
  357703.0, 4264766.5,      -7.1
  357703.0, 4264767.0,      -7.2
  357703.0, 4264767.5,      -7.5
  357703.0, 4264768.0,      -7.7
  357703.0, 4264768.5,      -7.8
  357703.0, 4264769.0,      -8.0
  357703.0, 4264769.5,      -8.1
  357703.0, 4264770.0,      -8.1
  357703.0, 4264770.5,      -8.3
  357703.0, 4264771.0,      -8.4
  357703.0, 4264771.5,      -8.1
  357703.0, 4264772.0,      -7.5
  357703.0, 4264772.5,      -7.2
  357703.0, 4264773.0,      -7.1
  357703.0, 4264773.5,      -6.5
  357703.0, 4264774.0,      -6.2
  357703.0, 4264774.5,      -6.1
  357703.0, 4264775.0,      -6.2
  357703.0, 4264775.5,      -6.3
  357703.0, 4264776.0,      -6.3
  357703.0, 4264776.5,      -6.8
  357703.0, 4264777.0,      -6.9
  357703.0, 4264777.5,      -6.9
  357703.0, 4264778.0,      -6.8
  357703.0, 4264778.5,      -6.6
  357703.0, 4264779.0,      -6.3
  357703.0, 4264779.5,      -6.3
  357703.0, 4264780.0,      -6.3
  357703.0, 4264780.5,      -6.2
  357703.0, 4264781.0,      -5.9
  357703.0, 4264781.5,      -6.0
  357703.0, 4264782.0,      -6.3
  357703.0, 4264782.5,      -6.8
  357703.0, 4264783.0,      -6.6
  357703.0, 4264783.5,      -6.6
  357703.0, 4264784.0,      -6.8
  357703.0, 4264784.5,      -7.2
  357703.0, 4264785.0,      -8.1
  357703.0, 4264785.5,     -16.2
  357703.0, 4264786.0,     -16.2
  357703.0, 4264786.5,     -16.2
  357703.0, 4264787.0,     -16.2
  357703.0, 4264787.5,     -16.1
  357703.0, 4264788.0,     -16.0
  357703.0, 4264788.5,     -16.0
  357703.0, 4264789.0,     -16.0
  357703.0, 4264789.5,     -15.9
  357703.0, 4264790.0,     -15.9
  357703.0, 4264790.5,     -15.8
  357703.0, 4264791.0,     -15.8
  357703.0, 4264791.5,     -15.8
  357703.0, 4264792.0,     -15.8
  357703.0, 4264792.5,     -15.7
  357703.0, 4264793.0,     -15.6
  357703.0, 4264793.5,     -15.6
  357703.0, 4264794.0,     -15.6
  357703.0, 4264794.5,     -15.6
  357703.0, 4264795.0,     -15.6
  357703.0, 4264795.5,     -15.6
  357703.0, 4264796.0,     -15.5
  357703.0, 4264796.5,     -15.5
  357703.0, 4264797.0,     -15.6
  357703.0, 4264797.5,     -15.7
  357703.0, 4264798.0,     -15.8
  357703.0, 4264798.5,     -15.8
  357703.0, 4264799.0,     -15.8
  357703.0, 4264799.5,     -15.8
  357703.0, 4264800.0,     -15.8
  357703.0, 4264800.5,     -15.8
  357703.0, 4264801.0,     -15.9
  357703.0, 4264801.5,     -15.9
  357703.0, 4264802.0,     -15.9
  357703.0, 4264802.5,     -15.8
  357703.0, 4264803.5,     -15.6
  357703.0, 4264804.0,     -15.5
  357703.0, 4264804.5,     -15.4
  357703.5, 4264738.0,     -18.1
  357703.5, 4264739.0,     -18.3
  357703.5, 4264739.5,     -18.3
  357703.5, 4264740.0,     -18.4
  357703.5, 4264741.0,     -18.5
  357703.5, 4264741.5,     -18.6
  357703.5, 4264742.0,     -18.7
  357703.5, 4264742.5,     -18.8
  357703.5, 4264743.0,     -18.8
  357703.5, 4264743.5,     -18.8
  357703.5, 4264744.0,     -18.9
  357703.5, 4264744.5,     -18.9
  357703.5, 4264745.0,     -18.8
  357703.5, 4264745.5,     -18.8
  357703.5, 4264746.0,     -18.8
  357703.5, 4264746.5,     -18.7
  357703.5, 4264747.0,     -18.7
  357703.5, 4264747.5,     -18.7
  357703.5, 4264748.0,     -18.7
  357703.5, 4264748.5,     -18.7
  357703.5, 4264749.0,     -18.6
  357703.5, 4264749.5,     -12.2
  357703.5, 4264750.0,     -12.5
  357703.5, 4264750.5,     -18.4
  357703.5, 4264751.0,     -18.0
  357703.5, 4264751.5,     -17.3
  357703.5, 4264752.0,     -16.9
  357703.5, 4264752.5,     -16.6
  357703.5, 4264753.0,     -15.1
  357703.5, 4264753.5,     -13.3
  357703.5, 4264754.0,     -12.8
  357703.5, 4264754.5,     -12.5
  357703.5, 4264755.0,     -12.3
  357703.5, 4264755.5,     -12.3
  357703.5, 4264756.0,     -12.3
  357703.5, 4264756.5,     -12.2
  357703.5, 4264757.0,     -12.3
  357703.5, 4264757.5,     -12.3
  357703.5, 4264758.0,     -12.4
  357703.5, 4264758.5,     -12.4
  357703.5, 4264759.0,     -12.5
  357703.5, 4264759.5,     -12.7
  357703.5, 4264760.0,     -12.8
  357703.5, 4264760.5,     -13.0
  357703.5, 4264761.0,     -12.8
  357703.5, 4264761.5,     -12.8
  357703.5, 4264762.0,      -9.0
  357703.5, 4264762.5,      -8.5
  357703.5, 4264763.0,      -8.1
  357703.5, 4264763.5,      -6.4
  357703.5, 4264764.0,      -6.3
  357703.5, 4264764.5,      -6.0
  357703.5, 4264765.0,      -6.0
  357703.5, 4264765.5,      -5.9
  357703.5, 4264766.0,      -5.9
  357703.5, 4264766.5,      -6.0
  357703.5, 4264767.0,      -6.2
  357703.5, 4264767.5,      -6.8
  357703.5, 4264768.0,      -6.8
  357703.5, 4264768.5,      -7.1
  357703.5, 4264769.0,      -7.4
  357703.5, 4264769.5,      -7.8
  357703.5, 4264770.0,      -7.9
  357703.5, 4264770.5,      -7.9
  357703.5, 4264771.0,      -8.2
  357703.5, 4264771.5,      -7.7
  357703.5, 4264772.0,      -7.4
  357703.5, 4264772.5,      -7.2
  357703.5, 4264773.0,      -6.4
  357703.5, 4264773.5,      -5.4
  357703.5, 4264774.0,      -5.4
  357703.5, 4264774.5,      -5.4
  357703.5, 4264775.0,      -5.4
  357703.5, 4264775.5,      -5.9
  357703.5, 4264776.0,      -6.6
  357703.5, 4264776.5,      -6.7
  357703.5, 4264777.0,      -6.5
  357703.5, 4264777.5,      -6.5
  357703.5, 4264778.0,      -6.5
  357703.5, 4264778.5,      -6.5
  357703.5, 4264779.0,      -6.2
  357703.5, 4264779.5,      -6.2
  357703.5, 4264780.0,      -6.3
  357703.5, 4264780.5,      -5.9
  357703.5, 4264781.0,      -5.4
  357703.5, 4264781.5,      -5.6
  357703.5, 4264782.0,      -6.3
  357703.5, 4264782.5,      -6.7
  357703.5, 4264783.0,      -6.6
  357703.5, 4264783.5,      -6.8
  357703.5, 4264784.0,      -6.8
  357703.5, 4264784.5,      -7.2
  357703.5, 4264785.0,      -9.6
  357703.5, 4264785.5,     -16.1
  357703.5, 4264786.0,     -16.1
  357703.5, 4264786.5,     -16.2
  357703.5, 4264787.0,     -16.1
  357703.5, 4264787.5,     -16.0
  357703.5, 4264788.0,     -16.0
  357703.5, 4264788.5,     -16.0
  357703.5, 4264789.0,     -15.9
  357703.5, 4264789.5,     -15.9
  357703.5, 4264790.0,     -15.9
  357703.5, 4264790.5,     -15.8
  357703.5, 4264791.0,     -15.8
  357703.5, 4264791.5,     -15.7
  357703.5, 4264792.0,     -15.7
  357703.5, 4264792.5,     -15.6
  357703.5, 4264793.0,     -15.6
  357703.5, 4264793.5,     -15.6
  357703.5, 4264794.0,     -15.6
  357703.5, 4264794.5,     -15.5
  357703.5, 4264795.0,     -15.6
  357703.5, 4264795.5,     -15.5
  357703.5, 4264796.0,     -15.5
  357703.5, 4264796.5,     -15.6
  357703.5, 4264797.0,     -15.6
  357703.5, 4264797.5,     -15.7
  357703.5, 4264798.0,     -15.8
  357703.5, 4264798.5,     -15.8
  357703.5, 4264799.0,     -15.8
  357703.5, 4264799.5,     -15.7
  357703.5, 4264800.0,     -15.8
  357703.5, 4264800.5,     -15.8
  357703.5, 4264801.0,     -15.9
  357703.5, 4264801.5,     -15.8
  357703.5, 4264802.0,     -15.8
  357703.5, 4264802.5,     -15.7
  357703.5, 4264803.5,     -15.6
  357703.5, 4264804.0,     -15.5
  357703.5, 4264805.0,     -15.3
  357703.5, 4264814.5,     -13.5
  357703.5, 4264815.0,     -13.4
  357704.0, 4264738.0,     -18.2
  357704.0, 4264738.5,     -18.2
  357704.0, 4264739.0,     -18.3
  357704.0, 4264739.5,     -18.4
  357704.0, 4264740.0,     -18.5
  357704.0, 4264741.0,     -18.6
  357704.0, 4264741.5,     -18.7
  357704.0, 4264742.0,     -18.9
  357704.0, 4264742.5,     -18.9
  357704.0, 4264743.0,     -18.9
  357704.0, 4264743.5,     -18.9
  357704.0, 4264744.0,     -18.9
  357704.0, 4264744.5,     -18.8
  357704.0, 4264745.0,     -18.8
  357704.0, 4264745.5,     -18.8
  357704.0, 4264746.0,     -18.7
  357704.0, 4264746.5,     -18.7
  357704.0, 4264747.0,     -18.7
  357704.0, 4264747.5,     -18.7
  357704.0, 4264748.0,     -18.6
  357704.0, 4264748.5,     -18.6
  357704.0, 4264749.0,     -18.5
  357704.0, 4264749.5,     -12.2
  357704.0, 4264750.0,     -12.3
  357704.0, 4264750.5,     -18.4
  357704.0, 4264751.0,     -18.3
  357704.0, 4264751.5,     -17.4
  357704.0, 4264752.0,     -16.8
  357704.0, 4264752.5,     -15.6
  357704.0, 4264753.0,     -15.1
  357704.0, 4264753.5,     -14.3
  357704.0, 4264754.0,     -12.9
  357704.0, 4264754.5,     -12.7
  357704.0, 4264755.0,     -12.5
  357704.0, 4264755.5,     -12.4
  357704.0, 4264756.0,     -12.3
  357704.0, 4264756.5,     -12.2
  357704.0, 4264757.0,     -12.2
  357704.0, 4264757.5,     -12.3
  357704.0, 4264758.0,     -12.4
  357704.0, 4264758.5,     -12.5
  357704.0, 4264759.0,     -12.5
  357704.0, 4264759.5,     -12.7
  357704.0, 4264760.0,     -12.7
  357704.0, 4264760.5,     -12.7
  357704.0, 4264761.0,     -12.7
  357704.0, 4264761.5,     -10.2
  357704.0, 4264762.0,      -8.5
  357704.0, 4264762.5,      -7.8
  357704.0, 4264763.0,      -6.5
  357704.0, 4264763.5,      -6.2
  357704.0, 4264764.0,      -5.9
  357704.0, 4264764.5,      -5.7
  357704.0, 4264765.0,      -5.6
  357704.0, 4264765.5,      -5.5
  357704.0, 4264766.0,      -5.6
  357704.0, 4264766.5,      -5.6
  357704.0, 4264767.0,      -5.7
  357704.0, 4264767.5,      -6.2
  357704.0, 4264768.0,      -6.3
  357704.0, 4264768.5,      -6.4
  357704.0, 4264769.0,      -6.6
  357704.0, 4264769.5,      -6.9
  357704.0, 4264770.0,      -7.5
  357704.0, 4264770.5,      -7.6
  357704.0, 4264771.0,      -7.5
  357704.0, 4264771.5,      -7.1
  357704.0, 4264772.0,      -6.8
  357704.0, 4264772.5,      -6.2
  357704.0, 4264773.0,      -4.9
  357704.0, 4264773.5,      -4.7
  357704.0, 4264774.0,      -4.8
  357704.0, 4264774.5,      -3.9
  357704.0, 4264775.0,      -2.9
  357704.0, 4264775.5,      -3.3
  357704.0, 4264776.0,      -6.5
  357704.0, 4264776.5,      -6.4
  357704.0, 4264777.0,      -6.2
  357704.0, 4264777.5,      -5.9
  357704.0, 4264778.0,      -5.8
  357704.0, 4264778.5,      -5.3
  357704.0, 4264779.0,      -5.8
  357704.0, 4264779.5,      -6.0
  357704.0, 4264780.0,      -6.2
  357704.0, 4264780.5,      -6.3
  357704.0, 4264781.0,      -5.2
  357704.0, 4264781.5,      -5.6
  357704.0, 4264782.0,      -6.5
  357704.0, 4264782.5,      -6.6
  357704.0, 4264783.0,      -6.7
  357704.0, 4264783.5,      -6.9
  357704.0, 4264784.0,      -7.1
  357704.0, 4264784.5,      -8.3
  357704.0, 4264785.0,     -16.1
  357704.0, 4264785.5,     -16.2
  357704.0, 4264786.0,     -16.1
  357704.0, 4264786.5,     -16.2
  357704.0, 4264787.0,     -16.1
  357704.0, 4264787.5,     -16.0
  357704.0, 4264788.0,     -16.0
  357704.0, 4264788.5,     -15.9
  357704.0, 4264789.0,     -15.9
  357704.0, 4264789.5,     -15.9
  357704.0, 4264790.0,     -15.8
  357704.0, 4264790.5,     -15.8
  357704.0, 4264791.0,     -15.7
  357704.0, 4264791.5,     -15.7
  357704.0, 4264792.0,     -15.7
  357704.0, 4264792.5,     -15.6
  357704.0, 4264793.0,     -15.6
  357704.0, 4264793.5,     -15.6
  357704.0, 4264794.0,     -15.6
  357704.0, 4264794.5,     -15.5
  357704.0, 4264795.0,     -15.5
  357704.0, 4264795.5,     -15.5
  357704.0, 4264796.0,     -15.5
  357704.0, 4264796.5,     -15.6
  357704.0, 4264797.0,     -15.7
  357704.0, 4264797.5,     -15.7
  357704.0, 4264798.0,     -15.8
  357704.0, 4264798.5,     -15.8
  357704.0, 4264799.0,     -15.7
  357704.0, 4264799.5,     -15.7
  357704.0, 4264800.0,     -15.7
  357704.0, 4264800.5,     -15.8
  357704.0, 4264801.0,     -15.8
  357704.0, 4264801.5,     -15.8
  357704.0, 4264802.0,     -15.7
  357704.0, 4264802.5,     -15.6
  357704.0, 4264803.5,     -15.6
  357704.0, 4264804.0,     -15.5
  357704.0, 4264804.5,     -15.4
  357704.5, 4264737.5,     -18.2
  357704.5, 4264738.0,     -18.2
  357704.5, 4264739.0,     -18.4
  357704.5, 4264739.5,     -18.5
  357704.5, 4264740.0,     -18.6
  357704.5, 4264741.0,     -18.7
  357704.5, 4264741.5,     -18.8
  357704.5, 4264742.0,     -18.9
  357704.5, 4264742.5,     -19.0
  357704.5, 4264743.0,     -19.1
  357704.5, 4264743.5,     -18.9
  357704.5, 4264744.0,     -18.8
  357704.5, 4264744.5,     -18.8
  357704.5, 4264745.0,     -18.8
  357704.5, 4264745.5,     -18.8
  357704.5, 4264746.0,     -18.7
  357704.5, 4264746.5,     -18.6
  357704.5, 4264747.0,     -18.6
  357704.5, 4264747.5,     -18.6
  357704.5, 4264748.0,     -18.5
  357704.5, 4264748.5,     -18.5
  357704.5, 4264749.0,     -18.4
  357704.5, 4264749.5,     -18.4
  357704.5, 4264750.0,     -18.4
  357704.5, 4264750.5,     -18.4
  357704.5, 4264751.0,     -18.3
  357704.5, 4264751.5,     -17.2
  357704.5, 4264752.0,     -16.4
  357704.5, 4264752.5,     -15.4
  357704.5, 4264753.0,     -14.9
  357704.5, 4264753.5,     -13.4
  357704.5, 4264754.0,     -12.8
  357704.5, 4264754.5,     -12.5
  357704.5, 4264755.0,     -12.5
  357704.5, 4264755.5,     -12.5
  357704.5, 4264756.0,     -12.4
  357704.5, 4264756.5,     -12.3
  357704.5, 4264757.0,     -12.2
  357704.5, 4264757.5,     -12.2
  357704.5, 4264758.0,     -12.3
  357704.5, 4264758.5,     -12.3
  357704.5, 4264759.0,     -12.4
  357704.5, 4264759.5,     -12.5
  357704.5, 4264760.0,     -12.6
  357704.5, 4264760.5,     -12.5
  357704.5, 4264761.0,      -8.4
  357704.5, 4264761.5,      -7.6
  357704.5, 4264762.0,      -7.5
  357704.5, 4264762.5,      -7.0
  357704.5, 4264763.0,      -6.3
  357704.5, 4264763.5,      -5.9
  357704.5, 4264764.0,      -5.6
  357704.5, 4264764.5,      -5.4
  357704.5, 4264765.0,      -5.2
  357704.5, 4264765.5,      -5.1
  357704.5, 4264766.0,      -5.3
  357704.5, 4264766.5,      -5.3
  357704.5, 4264767.0,      -5.1
  357704.5, 4264767.5,      -1.9
  357704.5, 4264768.0,      -1.6
  357704.5, 4264768.5,      -1.9
  357704.5, 4264769.0,      -5.5
  357704.5, 4264769.5,      -5.9
  357704.5, 4264770.0,      -6.3
  357704.5, 4264770.5,      -6.7
  357704.5, 4264771.0,      -6.9
  357704.5, 4264771.5,      -6.6
  357704.5, 4264772.0,      -6.1
  357704.5, 4264772.5,      -5.4
  357704.5, 4264773.0,      -4.6
  357704.5, 4264773.5,      -4.2
  357704.5, 4264774.0,      -3.1
  357704.5, 4264774.5,      -2.4
  357704.5, 4264775.0,      -2.3
  357704.5, 4264775.5,      -2.4
  357704.5, 4264776.0,      -6.3
  357704.5, 4264776.5,      -6.0
  357704.5, 4264777.0,      -5.5
  357704.5, 4264777.5,      -4.9
  357704.5, 4264778.0,      -4.5
  357704.5, 4264778.5,      -4.3
  357704.5, 4264779.0,      -4.4
  357704.5, 4264779.5,      -5.3
  357704.5, 4264780.0,      -5.7
  357704.5, 4264780.5,      -4.9
  357704.5, 4264781.0,      -4.9
  357704.5, 4264781.5,      -6.3
  357704.5, 4264782.0,      -6.2
  357704.5, 4264782.5,      -6.6
  357704.5, 4264783.0,      -6.5
  357704.5, 4264783.5,      -7.0
  357704.5, 4264784.0,      -7.7
  357704.5, 4264784.5,     -11.9
  357704.5, 4264785.0,     -16.2
  357704.5, 4264785.5,     -16.2
  357704.5, 4264786.0,     -16.2
  357704.5, 4264786.5,     -16.1
  357704.5, 4264787.0,     -16.0
  357704.5, 4264787.5,     -16.0
  357704.5, 4264788.0,     -15.9
  357704.5, 4264788.5,     -15.9
  357704.5, 4264789.0,     -15.8
  357704.5, 4264789.5,     -15.8
  357704.5, 4264790.0,     -15.8
  357704.5, 4264790.5,     -15.8
  357704.5, 4264791.0,     -15.7
  357704.5, 4264791.5,     -15.6
  357704.5, 4264792.0,     -15.6
  357704.5, 4264792.5,     -15.6
  357704.5, 4264793.0,     -15.6
  357704.5, 4264793.5,     -15.6
  357704.5, 4264794.0,     -15.6
  357704.5, 4264794.5,     -15.5
  357704.5, 4264795.0,     -15.5
  357704.5, 4264795.5,     -15.5
  357704.5, 4264796.0,     -15.6
  357704.5, 4264796.5,     -15.6
  357704.5, 4264797.0,     -15.6
  357704.5, 4264797.5,     -15.7
  357704.5, 4264798.0,     -15.8
  357704.5, 4264798.5,     -15.8
  357704.5, 4264799.0,     -15.7
  357704.5, 4264799.5,     -15.7
  357704.5, 4264800.0,     -15.8
  357704.5, 4264800.5,     -15.8
  357704.5, 4264801.0,     -15.8
  357704.5, 4264801.5,     -15.7
  357704.5, 4264802.0,     -15.7
  357704.5, 4264802.5,     -15.6
  357704.5, 4264803.5,     -15.5
  357704.5, 4264804.0,     -15.4
  357704.5, 4264805.0,     -15.2
  357705.0, 4264741.0,     -18.8
  357705.0, 4264741.5,     -18.9
  357705.0, 4264742.0,     -18.9
  357705.0, 4264742.5,     -19.0
  357705.0, 4264743.0,     -19.0
  357705.0, 4264743.5,     -18.9
  357705.0, 4264744.0,     -18.8
  357705.0, 4264744.5,     -18.8
  357705.0, 4264745.0,     -18.8
  357705.0, 4264745.5,     -18.8
  357705.0, 4264746.0,     -18.7
  357705.0, 4264746.5,     -18.7
  357705.0, 4264747.0,     -18.6
  357705.0, 4264747.5,     -18.6
  357705.0, 4264748.0,     -18.5
  357705.0, 4264748.5,     -18.5
  357705.0, 4264749.0,     -18.4
  357705.0, 4264749.5,     -18.4
  357705.0, 4264750.0,     -18.4
  357705.0, 4264750.5,     -18.3
  357705.0, 4264751.0,     -18.3
  357705.0, 4264751.5,     -16.9
  357705.0, 4264752.0,     -16.1
  357705.0, 4264752.5,     -15.2
  357705.0, 4264753.0,     -14.7
  357705.0, 4264753.5,     -13.6
  357705.0, 4264754.0,     -12.4
  357705.0, 4264754.5,     -12.4
  357705.0, 4264755.0,     -12.4
  357705.0, 4264755.5,     -12.4
  357705.0, 4264756.0,     -12.4
  357705.0, 4264756.5,     -12.4
  357705.0, 4264757.0,     -12.4
  357705.0, 4264757.5,     -12.3
  357705.0, 4264758.0,     -12.3
  357705.0, 4264758.5,     -12.3
  357705.0, 4264759.0,     -12.4
  357705.0, 4264759.5,     -12.4
  357705.0, 4264760.0,     -12.5
  357705.0, 4264760.5,      -8.0
  357705.0, 4264761.0,      -7.0
  357705.0, 4264761.5,      -6.7
  357705.0, 4264762.0,      -5.7
  357705.0, 4264762.5,      -5.9
  357705.0, 4264763.0,      -6.0
  357705.0, 4264763.5,      -4.7
  357705.0, 4264764.0,      -4.7
  357705.0, 4264764.5,      -5.1
  357705.0, 4264765.0,      -4.9
  357705.0, 4264765.5,      -4.8
  357705.0, 4264766.0,      -4.9
  357705.0, 4264766.5,      -5.1
  357705.0, 4264767.0,      -4.9
  357705.0, 4264767.5,      -1.4
  357705.0, 4264768.0,      -1.1
  357705.0, 4264768.5,      -0.7
  357705.0, 4264769.0,      -0.5
  357705.0, 4264769.5,      -2.5
  357705.0, 4264770.0,      -5.9
  357705.0, 4264770.5,      -6.1
  357705.0, 4264771.0,      -6.7
  357705.0, 4264771.5,      -6.2
  357705.0, 4264772.0,      -5.4
  357705.0, 4264772.5,      -4.9
  357705.0, 4264773.0,      -4.4
  357705.0, 4264773.5,      -3.7
  357705.0, 4264774.0,      -2.5
  357705.0, 4264774.5,      -1.9
  357705.0, 4264775.0,      -2.1
  357705.0, 4264775.5,      -2.1
  357705.0, 4264776.0,      -2.5
  357705.0, 4264776.5,      -3.3
  357705.0, 4264777.0,      -3.6
  357705.0, 4264778.0,      -0.3
  357705.0, 4264778.5,      -0.7
  357705.0, 4264779.0,      -1.0
  357705.0, 4264779.5,      -2.2
  357705.0, 4264780.0,      -2.7
  357705.0, 4264780.5,      -5.6
  357705.0, 4264781.0,      -4.9
  357705.0, 4264781.5,      -6.2
  357705.0, 4264782.0,      -6.2
  357705.0, 4264782.5,      -6.5
  357705.0, 4264783.0,      -6.8
  357705.0, 4264783.5,      -7.2
  357705.0, 4264784.0,      -8.9
  357705.0, 4264784.5,     -13.7
  357705.0, 4264785.0,     -16.1
  357705.0, 4264785.5,     -16.2
  357705.0, 4264786.0,     -16.0
  357705.0, 4264786.5,     -16.1
  357705.0, 4264787.0,     -16.1
  357705.0, 4264787.5,     -16.1
  357705.0, 4264788.0,     -15.9
  357705.0, 4264788.5,     -15.9
  357705.0, 4264789.0,     -15.8
  357705.0, 4264789.5,     -15.8
  357705.0, 4264790.0,     -15.7
  357705.0, 4264790.5,     -15.7
  357705.0, 4264791.0,     -15.6
  357705.0, 4264791.5,     -15.6
  357705.0, 4264792.0,     -15.6
  357705.0, 4264792.5,     -15.6
  357705.0, 4264793.0,     -15.5
  357705.0, 4264793.5,     -15.6
  357705.0, 4264794.0,     -15.6
  357705.0, 4264794.5,     -15.5
  357705.0, 4264795.0,     -15.5
  357705.0, 4264795.5,     -15.5
  357705.0, 4264796.0,     -15.5
  357705.0, 4264796.5,     -15.5
  357705.0, 4264797.0,     -15.6
  357705.0, 4264797.5,     -15.6
  357705.0, 4264798.0,     -15.7
  357705.0, 4264798.5,     -15.7
  357705.0, 4264799.0,     -15.7
  357705.0, 4264799.5,     -15.8
  357705.0, 4264800.0,     -15.8
  357705.0, 4264800.5,     -15.8
  357705.0, 4264801.0,     -15.8
  357705.0, 4264802.0,     -15.7
  357705.5, 4264738.5,     -18.3
  357705.5, 4264739.0,     -18.4
  357705.5, 4264739.5,     -18.5
  357705.5, 4264740.0,     -18.6
  357705.5, 4264740.5,     -18.8
  357705.5, 4264741.0,     -18.7
  357705.5, 4264741.5,     -18.9
  357705.5, 4264742.0,     -19.0
  357705.5, 4264742.5,     -19.0
  357705.5, 4264743.0,     -19.0
  357705.5, 4264743.5,     -18.9
  357705.5, 4264744.0,     -18.8
  357705.5, 4264744.5,     -18.7
  357705.5, 4264745.0,     -18.7
  357705.5, 4264745.5,     -18.7
  357705.5, 4264746.0,     -18.7
  357705.5, 4264746.5,     -18.6
  357705.5, 4264747.0,     -18.6
  357705.5, 4264747.5,     -18.6
  357705.5, 4264748.0,     -18.5
  357705.5, 4264748.5,     -18.4
  357705.5, 4264749.0,     -18.4
  357705.5, 4264749.5,     -18.4
  357705.5, 4264750.0,     -18.4
  357705.5, 4264750.5,     -18.3
  357705.5, 4264751.0,     -18.2
  357705.5, 4264751.5,     -16.8
  357705.5, 4264752.0,     -16.4
  357705.5, 4264752.5,     -14.9
  357705.5, 4264753.0,     -14.6
  357705.5, 4264753.5,     -14.5
  357705.5, 4264754.0,     -12.3
  357705.5, 4264754.5,     -12.3
  357705.5, 4264755.0,     -12.3
  357705.5, 4264755.5,     -12.4
  357705.5, 4264756.0,     -12.4
  357705.5, 4264756.5,     -12.4
  357705.5, 4264757.0,     -12.4
  357705.5, 4264757.5,     -12.4
  357705.5, 4264758.0,     -12.3
  357705.5, 4264758.5,     -12.2
  357705.5, 4264759.0,     -12.3
  357705.5, 4264759.5,     -12.4
  357705.5, 4264760.0,      -8.0
  357705.5, 4264760.5,      -6.3
  357705.5, 4264761.0,      -6.3
  357705.5, 4264761.5,      -5.3
  357705.5, 4264762.0,      -5.3
  357705.5, 4264762.5,      -5.3
  357705.5, 4264763.0,      -5.3
  357705.5, 4264763.5,      -4.1
  357705.5, 4264764.0,      -4.0
  357705.5, 4264764.5,      -4.6
  357705.5, 4264765.0,      -4.5
  357705.5, 4264765.5,      -4.5
  357705.5, 4264766.0,      -4.6
  357705.5, 4264766.5,      -4.9
  357705.5, 4264767.0,      -4.9
  357705.5, 4264767.5,      -1.1
  357705.5, 4264768.0,      -0.5
  357705.5, 4264768.5,      -0.3
  357705.5, 4264769.0,      -0.2
  357705.5, 4264769.5,      -0.3
  357705.5, 4264770.0,      -2.5
  357705.5, 4264770.5,      -5.8
  357705.5, 4264771.0,      -6.2
  357705.5, 4264771.5,      -5.9
  357705.5, 4264772.0,      -5.3
  357705.5, 4264772.5,      -4.8
  357705.5, 4264773.0,      -4.1
  357705.5, 4264773.5,      -2.7
  357705.5, 4264774.0,      -2.1
  357705.5, 4264774.5,      -1.3
  357705.5, 4264775.0,      -1.2
  357705.5, 4264775.5,      -1.2
  357705.5, 4264776.0,      -1.8
  357705.5, 4264776.5,      -0.8
  357705.5, 4264778.5,      -0.1
  357705.5, 4264779.0,      -1.0
  357705.5, 4264779.5,      -1.9
  357705.5, 4264780.0,      -2.4
  357705.5, 4264780.5,      -5.6
  357705.5, 4264781.0,      -5.9
  357705.5, 4264781.5,      -6.2
  357705.5, 4264782.0,      -6.2
  357705.5, 4264782.5,      -6.6
  357705.5, 4264783.0,      -6.9
  357705.5, 4264783.5,      -7.3
  357705.5, 4264784.0,     -12.0
  357705.5, 4264784.5,     -15.7
  357705.5, 4264785.0,     -16.1
  357705.5, 4264785.5,     -16.1
  357705.5, 4264786.0,     -16.0
  357705.5, 4264786.5,     -16.1
  357705.5, 4264787.0,     -16.1
  357705.5, 4264787.5,     -16.1
  357705.5, 4264788.0,     -15.9
  357705.5, 4264788.5,     -15.8
  357705.5, 4264789.0,     -15.8
  357705.5, 4264789.5,     -15.8
  357705.5, 4264790.0,     -15.7
  357705.5, 4264790.5,     -15.6
  357705.5, 4264791.0,     -15.6
  357705.5, 4264791.5,     -15.6
  357705.5, 4264792.0,     -15.6
  357705.5, 4264792.5,     -15.5
  357705.5, 4264793.0,     -15.5
  357705.5, 4264793.5,     -15.5
  357705.5, 4264794.0,     -15.6
  357705.5, 4264794.5,     -15.5
  357705.5, 4264795.0,     -15.5
  357705.5, 4264795.5,     -15.5
  357705.5, 4264796.0,     -15.5
  357705.5, 4264796.5,     -15.5
  357705.5, 4264797.0,     -15.6
  357705.5, 4264797.5,     -15.6
  357705.5, 4264798.0,     -15.6
  357705.5, 4264798.5,     -15.6
  357705.5, 4264799.0,     -15.7
  357705.5, 4264799.5,     -15.7
  357705.5, 4264800.0,     -15.7
  357705.5, 4264800.5,     -15.7
  357705.5, 4264801.0,     -15.7
  357705.5, 4264801.5,     -15.7
  357705.5, 4264802.0,     -15.7
  357705.5, 4264802.5,     -15.6
  357705.5, 4264803.5,     -15.5
  357705.5, 4264804.0,     -15.4
  357705.5, 4264804.5,     -15.3
  357706.0, 4264736.5,     -18.1
  357706.0, 4264737.0,     -18.2
  357706.0, 4264738.0,     -18.2
  357706.0, 4264739.0,     -18.4
  357706.0, 4264739.5,     -18.6
  357706.0, 4264740.0,     -18.8
  357706.0, 4264740.5,     -18.8
  357706.0, 4264741.0,     -18.9
  357706.0, 4264741.5,     -18.9
  357706.0, 4264742.0,     -19.0
  357706.0, 4264742.5,     -19.0
  357706.0, 4264743.0,     -18.9
  357706.0, 4264743.5,     -18.9
  357706.0, 4264744.0,     -18.8
  357706.0, 4264744.5,     -18.7
  357706.0, 4264745.0,     -18.7
  357706.0, 4264745.5,     -18.7
  357706.0, 4264746.0,     -18.6
  357706.0, 4264746.5,     -18.5
  357706.0, 4264747.0,     -18.5
  357706.0, 4264747.5,     -18.5
  357706.0, 4264748.0,     -18.4
  357706.0, 4264748.5,     -18.4
  357706.0, 4264749.0,     -18.4
  357706.0, 4264749.5,     -18.4
  357706.0, 4264750.0,     -18.3
  357706.0, 4264750.5,     -18.3
  357706.0, 4264751.0,     -17.9
  357706.0, 4264751.5,     -16.9
  357706.0, 4264752.0,     -16.3
  357706.0, 4264752.5,     -14.9
  357706.0, 4264753.0,     -14.6
  357706.0, 4264753.5,     -13.8
  357706.0, 4264754.0,     -12.8
  357706.0, 4264754.5,     -12.4
  357706.0, 4264755.0,     -12.3
  357706.0, 4264755.5,     -12.4
  357706.0, 4264756.0,     -12.3
  357706.0, 4264756.5,     -12.3
  357706.0, 4264757.0,     -12.2
  357706.0, 4264757.5,     -11.9
  357706.0, 4264758.0,     -11.8
  357706.0, 4264758.5,     -11.7
  357706.0, 4264759.0,     -12.2
  357706.0, 4264759.5,     -12.2
  357706.0, 4264760.0,      -8.1
  357706.0, 4264760.5,      -6.3
  357706.0, 4264761.0,      -6.2
  357706.0, 4264761.5,      -5.2
  357706.0, 4264762.0,      -5.3
  357706.0, 4264762.5,      -5.2
  357706.0, 4264763.0,      -4.7
  357706.0, 4264763.5,      -3.8
  357706.0, 4264764.0,      -3.7
  357706.0, 4264764.5,      -3.9
  357706.0, 4264765.0,      -3.9
  357706.0, 4264765.5,      -3.9
  357706.0, 4264766.0,      -4.1
  357706.0, 4264766.5,      -4.5
  357706.0, 4264767.0,      -1.1
  357706.0, 4264767.5,      -0.9
  357706.0, 4264768.0,      -0.3
  357706.0, 4264769.5,      -0.2
  357706.0, 4264770.5,      -2.4
  357706.0, 4264771.0,      -3.2
  357706.0, 4264771.5,      -5.0
  357706.0, 4264772.0,      -4.9
  357706.0, 4264772.5,      -4.6
  357706.0, 4264773.0,      -3.2
  357706.0, 4264773.5,      -2.5
  357706.0, 4264774.0,      -1.2
  357706.0, 4264774.5,      -1.0
  357706.0, 4264775.0,      -0.9
  357706.0, 4264775.5,      -1.0
  357706.0, 4264776.0,      -0.6
  357706.0, 4264776.5,      -0.2
  357706.0, 4264779.0,      -2.0
  357706.0, 4264779.5,      -1.8
  357706.0, 4264780.0,      -2.1
  357706.0, 4264780.5,      -5.0
  357706.0, 4264781.0,      -5.6
  357706.0, 4264781.5,      -6.1
  357706.0, 4264782.0,      -6.2
  357706.0, 4264782.5,      -6.4
  357706.0, 4264783.0,      -6.9
  357706.0, 4264783.5,      -7.3
  357706.0, 4264784.0,     -15.8
  357706.0, 4264784.5,     -15.9
  357706.0, 4264785.0,     -16.0
  357706.0, 4264785.5,     -16.1
  357706.0, 4264786.0,     -16.0
  357706.0, 4264786.5,     -16.1
  357706.0, 4264787.0,     -15.9
  357706.0, 4264787.5,     -15.9
  357706.0, 4264788.0,     -15.9
  357706.0, 4264788.5,     -15.8
  357706.0, 4264789.0,     -15.8
  357706.0, 4264789.5,     -15.8
  357706.0, 4264790.0,     -15.7
  357706.0, 4264790.5,     -15.7
  357706.0, 4264791.0,     -15.6
  357706.0, 4264791.5,     -15.6
  357706.0, 4264792.0,     -15.5
  357706.0, 4264792.5,     -15.5
  357706.0, 4264793.0,     -15.4
  357706.0, 4264793.5,     -15.5
  357706.0, 4264794.0,     -15.5
  357706.0, 4264794.5,     -15.5
  357706.0, 4264795.0,     -15.5
  357706.0, 4264795.5,     -15.5
  357706.0, 4264796.0,     -15.5
  357706.0, 4264796.5,     -15.5
  357706.0, 4264797.0,     -15.5
  357706.0, 4264797.5,     -15.6
  357706.0, 4264798.0,     -15.6
  357706.0, 4264798.5,     -15.6
  357706.0, 4264799.0,     -15.6
  357706.0, 4264799.5,     -15.6
  357706.0, 4264800.0,     -15.5
  357706.0, 4264800.5,     -15.7
  357706.0, 4264801.0,     -15.8
  357706.0, 4264801.5,     -15.7
  357706.0, 4264802.0,     -15.7
